# This PCD file was generated using the MATLAB® pcwrite function
# from Computer Vision Toolbox®.
# .PCD v.7 - Point Cloud Data file format
VERSION .7
FIELDS x y z
SIZE 8 8 8
TYPE F F F
COUNT 1 1 1
WIDTH 883
HEIGHT 1
VIEWPOINT 0 0 0 1 0 0 0
POINTS 883
DATA ascii
0.067915138931274 0.023180767440796 0.056206970825195
0.031119943237305 0.060942239379883 0.064193995895386
0.034713007316589 0.016416065120697 0.053884156417847
0.067203737716675 0.045283823394775 0.067121615219116
0.083170284118652 0.031839476127625 0.044237252197266
0.050903227691650 0.049629086608887 0.014262097206116
0.071362294235229 0.064756740264893 0.042269490203857
0.060528300399780 0.021822293701172 0.026042554626465
0.076079859008789 0.055150780258179 0.029320209617615
0.072569675903320 0.036507708435059 0.023101185951233
0.037944329986572 0.054338796539307 0.015910868167877
0.041131343688965 0.072685315399170 0.045327747497559
0.069571898651123 0.058630187683105 0.026303207130432
0.007940630855560 0.030353807945251 0.043038301544189
0.017023929824829 0.033214629592896 0.024724590721130
0.063617229843140 0.068855410919189 0.040612050781250
0.006502501354218 0.041163964920044 0.032239170608521
0.028871758842468 0.027242137718201 0.064857322769165
0.005298793907166 0.033924374313354 0.040681173400879
0.029613996505737 0.068991333465576 0.034871648139954
0.055966567611694 0.014975190925598 0.037763231964111
0.080045163879395 0.047324093017578 0.028935374069214
0.027615503845215 0.017002546195984 0.047917221450806
0.032845424957275 0.069883747177124 0.034342922668457
0.048389745407104 0.047228155899048 0.072502362823486
0.077013581542969 0.060392949523926 0.045399183807373
0.063381859130859 0.020293534164429 0.030328672447205
0.066313030014038 0.060299618682861 0.060636157073975
0.018816468048096 0.064554517440796 0.047196340408325
0.035679362335205 0.014823520431519 0.049445953979492
0.074807923583984 0.060623278732300 0.035013937835693
0.032264004516602 0.064399639739990 0.024834198417664
0.060873566894531 0.069467206420898 0.048610023117065
0.076194076080322 0.044241492462158 0.024853675727844
0.051919900970459 0.069460972061157 0.030229678916931
0.033962322883606 0.016856676807404 0.031609833374023
0.075467451324463 0.047242497177124 0.024698872299194
0.040347875976563 0.013356208724976 0.041858877716064
0.073261554794312 0.046791111526489 0.022905568847656
0.080235876770020 0.053997144622803 0.033523624267578
0.039716283569336 0.051400270462036 0.071433726043701
0.058646590576172 0.018231463413239 0.030513051948547
0.026330874633789 0.031341296768188 0.066160682067871
0.032308203201294 0.051885681762695 0.069656343841553
0.029162498321533 0.022291092796326 0.025624778251648
0.061041872100830 0.069941202316284 0.041850703277588
0.084446162719727 0.049038019790649 0.035521194152832
0.022912876777649 0.048908898773193 0.066588516693115
0.080718312683105 0.034231131820679 0.053937447814941
0.028576265945435 0.023444818458557 0.061382119598389
0.002944634962082 0.048876790695190 0.043192337493896
0.069538066558838 0.034108933868408 0.021912282295227
0.035110217056274 0.014424314346313 0.046472294921875
0.028118112525940 0.021931968917847 0.059350555572510
0.059860629730225 0.025099887924194 0.063700716247559
0.035836974601746 0.067706776275635 0.058135337066650
0.057541123809814 0.054118613357544 0.068857850646973
0.036836000366211 0.062737915039063 0.064498525238037
0.052534464797974 0.029706998748779 0.069082193069458
0.016170165767670 0.060054624099731 0.053708464508057
0.048212716598511 0.041653440933228 0.072780437774658
0.051463541336060 0.057131569137573 0.017166235275269
0.051640462112427 0.019840392990112 0.024906726303101
0.049274196243286 0.061095991744995 0.066601975708008
0.024052601013184 0.031503804244995 0.065072721023560
0.022281932563782 0.025802680320740 0.026319785575867
0.052669797668457 0.070306774368286 0.032529763793945
0.063043596725464 0.053455011901855 0.019026073074341
0.085003500976563 0.046368160858154 0.034821946563721
0.049570497131348 0.029997038269043 0.069683540954590
0.005673473863602 0.046665762634277 0.052242818298340
0.020208362007141 0.060985767364502 0.057034380645752
0.037663153610229 0.068186506881714 0.028004969024658
0.051857260284424 0.052702283859253 0.015280142269135
0.084159139099121 0.042908158721924 0.053026277008057
0.065507897338867 0.054046398315430 0.020540583610535
0.066605378723145 0.031521762351990 0.064695139389038
0.074721164703369 0.053554460067749 0.026717452201843
0.037736842842102 0.013895600128174 0.046475810470581
0.021847964859009 0.033811761970520 0.064906387405396
0.061374849929810 0.023705806312561 0.061638480072021
0.020438216323853 0.023423351554871 0.054890814208984
0.022632107772827 0.019032406463623 0.045926183013916
0.010630430736542 0.043882150268555 0.027595360336304
0.080688765869141 0.043896892166138 0.057029069061279
0.040694425354004 0.071815827026367 0.050334496536255
0.034797348976135 0.042994066848755 0.014259870166779
0.005651855039597 0.039119369506836 0.033928760871887
0.041323303451538 0.045572143402100 0.013351644363403
0.053165152435303 0.069332850341797 0.055516856460571
0.074123701477051 0.023193717803955 0.042470124053955
0.035348356094360 0.051562966995239 0.070596233215332
0.036387608108521 0.015434976081848 0.052191552505493
0.021273246917725 0.028123457870483 0.024951019515991
0.047128208084106 0.072685810546875 0.039520574188232
0.083507002563477 0.049625382003784 0.051611221389771
0.079002904968262 0.058048551177979 0.047692496414185
0.072419803695679 0.046470242309570 0.063794029083252
0.017243883438110 0.036664242630005 0.062919850311279
0.025382068099976 0.030160173683167 0.020983364944458
0.011631690292358 0.054670788574219 0.054600540618896
0.027617284126282 0.048427453155518 0.017102039375305
0.019284835014343 0.023911544685364 0.031672113952637
0.066386280364990 0.060903311767578 0.026085641479492
0.062740993957520 0.061851096496582 0.024676349830627
0.077326902008057 0.058753105850220 0.050160915756226
0.049103680877686 0.018733987693787 0.025855138969421
0.082000898284912 0.055604596633911 0.041757863082886
0.040009316482544 0.056857986526489 0.069263435134888
0.036228404617310 0.058838266754150 0.018657509880066
0.013456706829071 0.056829803619385 0.054567410736084
0.037495602378845 0.069567838439941 0.030665226593018
0.014715204620361 0.032757488975525 0.059038148880005
0.031800278434753 0.021389741668701 0.060731693572998
0.086195465545654 0.048665479660034 0.047322616577148
0.054091564788818 0.015567972755432 0.033806434631348
0.081157094573975 0.051743475341797 0.032647212829590
0.088189812469482 0.039379250030518 0.042404926605225
0.054795160675049 0.062962973175049 0.063832799148560
0.010045950508118 0.037372533416748 0.056809700622559
0.016821954574585 0.023370152435303 0.049236767578125
0.056105996704102 0.017934676380157 0.029481789817810
0.051061283340454 0.039947080917358 0.013671321849823
0.063896191558838 0.034589364433289 0.067396368179321
0.057850226516724 0.027230958633423 0.066190588989258
0.040235189361572 0.068621737213135 0.058023244628906
0.070633625869751 0.061550451812744 0.030746115722656
0.059603661575317 0.016654648666382 0.035335367469788
0.045700278625488 0.040918137588501 0.013170001678467
0.051513389205933 0.013584120712280 0.043503767395020
0.069242940521240 0.065741210937500 0.038956470413208
0.075380395355225 0.026800776557922 0.033376569900513
0.042160611724854 0.053764330673218 0.015192728443146
0.086763030853271 0.044792546844482 0.048969765930176
0.023465805969238 0.036749198722839 0.066776051635742
0.004766060552597 0.049011142272949 0.049249402847290
0.049245036544800 0.017745484943390 0.058648643188477
0.044725863952637 0.066258883361816 0.024143118515015
0.047259485244751 0.021707520713806 0.063954799041748
0.030545250053406 0.057350325393677 0.066519817199707
0.028998939781189 0.044365306396484 0.069969407730103
0.045397410278320 0.072905512084961 0.044345248413086
0.061982081069946 0.066811643753052 0.031172221832275
0.067415102767944 0.067008739547729 0.040807143478394
0.008760363073349 0.033921464195251 0.053051439514160
0.014465762710571 0.034960250320435 0.026003507728577
0.055046664199829 0.015306442489624 0.050710264129639
0.020843483467102 0.058427442703247 0.025748349113464
0.046177844085693 0.013193532447815 0.040440121994019
0.054434197998047 0.059899786911011 0.066461929931641
0.055644073410034 0.071198472366333 0.038097587203979
0.031513797225952 0.037283021965027 0.070287126007080
0.029636755294800 0.046917680282593 0.069945546112061
0.088399097900391 0.044837209167480 0.040256327667236
0.005644427261353 0.052204340820313 0.046666838455200
0.072570526657104 0.062693504791260 0.050213450927734
0.035558318977356 0.022815375442505 0.022345309219360
0.073944016876221 0.058818487854004 0.055221527862549
0.012288118858337 0.046439916763306 0.059682745666504
0.062861269836426 0.023566212921143 0.025433736763000
0.020560740623474 0.045326469116211 0.065910722503662
0.070275458526611 0.055873056716919 0.024628523063660
0.085047064971924 0.043742712173462 0.034257496185303
0.056342137145996 0.037904853210449 0.015052885227203
0.023199058647156 0.048055894317627 0.019090638084412
0.062591297302246 0.026695346107483 0.063695314636230
0.053916426544189 0.034082560501099 0.070606136169434
0.054928738021851 0.045775352020264 0.071700988769531
0.011107741870880 0.032766142807007 0.030844956207275
0.081633840789795 0.041068788528442 0.030122663993835
0.008478130569458 0.039739632034302 0.030196249694824
0.014092937870026 0.058748681030273 0.052817266159058
0.076312308349609 0.060480176544189 0.047835634613037
0.044727772521973 0.021831570968628 0.064181378631592
0.015272117500305 0.060258624954224 0.034016933174133
0.044424048919678 0.045843502349854 0.013213546543121
0.010263829002380 0.035661813850403 0.029830081214905
0.007046066627502 0.031817201232910 0.046067588195801
0.086922360382080 0.037081325798035 0.042611727294922
0.043663943176270 0.041101535797119 0.072865454635620
0.037717541084290 0.024884235343933 0.066064681930542
0.011684743118286 0.050057222824097 0.028138726425171
0.038667479705811 0.047229510803223 0.013872933616638
0.020825435333252 0.047528787078857 0.020301339492798
0.023263085746765 0.031514195594788 0.021395314331055
0.004175439085960 0.050672290802002 0.041442143402100
0.058631002426147 0.015424428310394 0.046182430953979
0.034374720153809 0.027902793045044 0.018693125629425
0.018206583366394 0.025029563446045 0.054849933013916
0.014450843009949 0.047129580993652 0.024650725936890
0.010841448059082 0.040374789505005 0.058449386749268
0.066549003906250 0.066768651428223 0.036830409698486
0.071754343185425 0.027972388305664 0.058401181869507
0.064650553588867 0.022185966186523 0.057631051635742
0.013012290382385 0.032038518753052 0.029239151687622
0.063417671813965 0.056772060394287 0.065092999572754
0.072065030364990 0.049287740783691 0.063405104064941
0.054323532485962 0.014547417068481 0.048075511169434
0.069304298324585 0.025371069068909 0.028187919349670
0.043709550781250 0.029908825454712 0.069899020233154
0.077930919189453 0.054862374725342 0.031193283615112
0.045850965576172 0.036580654945374 0.013790476894379
0.052526353378296 0.018371069183350 0.058798443374634
0.057486981658936 0.015654666366577 0.049489526977539
0.054928454437256 0.054490064163208 0.069433509368896
0.025744529724121 0.023058639259338 0.059189330978394
0.005533757810593 0.036945986175537 0.035419868927002
0.069395851135254 0.061270697860718 0.056987089538574
0.045488787536621 0.050094363403320 0.072087235488892
0.070852323608398 0.064268038482666 0.049010422058105
0.044684325561523 0.053409872436523 0.014969933357239
0.010747481403351 0.052298756484985 0.030528541069031
0.017365361175537 0.052146521072388 0.061886931686401
0.047131192474365 0.072881402893066 0.042356726226807
0.072669061050415 0.059468675308228 0.030153455429077
0.051707622146606 0.025288581962585 0.066471454772949
0.048876520614624 0.016343631763458 0.056202573013306
0.072765979461670 0.057914474182129 0.057568262405396
0.072237449798584 0.061014328384399 0.054209216384888
0.040871971817017 0.041313121414185 0.072695474929810
0.081329432983398 0.046261654586792 0.055983564682007
0.005519413719177 0.036902023811340 0.050561647796631
0.038769219055176 0.015460333271027 0.032585409393311
0.075690924987793 0.040723594055176 0.024541365814209
0.062365473937988 0.032343709793091 0.018841996288300
0.083960053710938 0.039966184616089 0.052836847000122
0.049346096191406 0.068754859924316 0.057854367752075
0.063896470642090 0.056075572128296 0.020775294876099
0.037066295814514 0.038090385055542 0.014225895156860
0.022977725372314 0.018888921661377 0.039910894622803
0.032475961494446 0.031280695190430 0.017472463874817
0.084543832855225 0.051147340011597 0.047888682937622
0.070660552902222 0.025940590209961 0.057214434356689
0.020984278717041 0.065953728332520 0.039342339019775
0.030607618408203 0.016159651756287 0.036883440017700
0.033352255897522 0.057693395233154 0.067287062072754
0.049529075775146 0.064775006713867 0.022831722068787
0.016725798015594 0.062149193420410 0.035563407745361
0.051519182434082 0.024879718246460 0.019841155967712
0.050909966201782 0.063051199493408 0.021360379409790
0.028409918823242 0.019032651786804 0.031107046890259
0.080891875457764 0.029645586929321 0.039524976501465
0.074447861175537 0.055127674865723 0.058436445388794
0.052715297241211 0.013898399963379 0.040350315704346
0.030175917129517 0.050740742721558 0.016712313117981
0.050722836380005 0.055009712677002 0.016030067100525
0.002913199272156 0.048165803604126 0.040317329864502
0.024840961685181 0.062750631332397 0.058804065551758
0.060911544723511 0.030527964897156 0.066977171630859
0.080068966979980 0.050549750747681 0.055628381729126
0.062021323776245 0.046797219848633 0.069307453765869
0.025224246520996 0.065619746704102 0.031299767379761
0.053061504516602 0.071143299407959 0.050713027954102
0.079148190307617 0.027822113227844 0.039529576873779
0.086611443634033 0.048835310821533 0.040249400100708
0.036409048004150 0.030907902984619 0.069444960784912
0.017268262710571 0.058246583251953 0.028707219009399
0.033465822525024 0.049343161315918 0.070703248138428
0.031906471862793 0.042705742340088 0.070992018280029
0.068139890975952 0.042587568588257 0.066700420074463
0.017779863948822 0.061888277587891 0.033256543846130
0.019134559936523 0.049274839935303 0.021778657684326
0.056438510894775 0.034509575881958 0.015912528038025
0.073477938842773 0.039561500396729 0.023016596717834
0.017019602909088 0.022648312606812 0.039071709289551
0.022703177223206 0.066384070205688 0.036742723541260
0.052267674713135 0.066506007080078 0.060544212646484
0.046108496398926 0.013095499954224 0.043657128143311
0.023370213203430 0.028085493545532 0.023567257232666
0.072102445526123 0.056347790832520 0.059628990631104
0.062923806991577 0.049234264831543 0.068471585922241
0.023386465301514 0.060434776000977 0.025709349479675
0.079219914703369 0.028137673110962 0.047496246871948
0.024569523963928 0.062628023757935 0.027296169586182
0.018845289020538 0.034708251647949 0.063341162490845
0.044398643341064 0.070870355987549 0.032078576202393
0.037705153388977 0.035455321502686 0.071341880645752
0.057369766693115 0.070127778472900 0.035398906173706
0.029952432212830 0.069568396606445 0.049455280761719
0.071201393737793 0.034905808830261 0.063321478118896
0.065568287353516 0.048647802886963 0.067389494628906
0.016022504844666 0.031667756652832 0.026543882675171
0.039205061569214 0.063879527587891 0.022077434310913
0.009151722755432 0.052836968536377 0.033065194015503
0.051010890808105 0.045987410278320 0.072390036315918
0.041007124633789 0.021985296325684 0.021954711952209
0.056203666839600 0.038593900756836 0.071125023956299
0.058069491424561 0.046816084976196 0.015332474880219
0.040321277542114 0.072688727416992 0.042013912963867
0.081929606018066 0.035313700256348 0.032899544601440
0.020260402030945 0.022012826538086 0.034087302665710
0.029670065231323 0.067032448120117 0.055899592132568
0.079376579437256 0.032082625160217 0.053852471466064
0.044029348678589 0.014395482120514 0.051792116851807
0.034902133483887 0.064242929992676 0.023627298393250
0.019205888214111 0.027890886993408 0.026808764190674
0.041858661651611 0.013539371738434 0.047356156082153
0.051683368911743 0.022193186340332 0.022216199455261
0.020181797332764 0.025131131744385 0.057113352203369
0.056271231994629 0.066299724044800 0.059360571060181
0.080933863983154 0.033016367950439 0.033539649047852
0.083315182342529 0.051324454345703 0.035706235351563
0.037685597305298 0.072359139099121 0.043111074752808
0.020138615951538 0.039845107498169 0.065536525878906
0.049056583328247 0.031492636413574 0.015575860233307
0.071710950241089 0.030120757675171 0.060257306060791
0.033763043937683 0.054323064346313 0.069171270141602
0.017494789409637 0.051299512405396 0.023657385368347
0.054277861862183 0.020815109252930 0.024462425765991
0.011526158561707 0.027877943382263 0.049111180114746
0.038171886367798 0.022404578399658 0.022054853324890
0.032477368164062 0.070609422149658 0.037459958496094
0.007194762859344 0.050646340560913 0.052020478973389
0.067515685272217 0.042757017135620 0.018989704475403
0.069479819183350 0.037356807975769 0.065236668930054
0.012017226924896 0.041676609344482 0.026300796661377
0.022443379974365 0.022205362472534 0.030945464439392
0.046625687179565 0.064134105529785 0.064221733169556
0.039619657745361 0.018198946838379 0.026883533744812
0.023210912933350 0.051970252990723 0.020263289642334
0.056039511871338 0.019063150634766 0.058473883056641
0.051915485153198 0.018269504261017 0.027180347785950
0.057184153823853 0.030614876823425 0.017696407928467
0.041334214706421 0.014163356876373 0.050291112594604
0.054816915664673 0.069268517150879 0.031134079704285
0.074577058715820 0.034183894729614 0.025624737739563
0.037058357696533 0.066591978225708 0.060260294952393
0.055677837982178 0.051943753585815 0.070188668136597
0.060401371536255 0.055060096206665 0.018646852951050
0.049020370025635 0.070327503051758 0.054844909515381
0.069321912078857 0.053433216400146 0.022473259887695
0.028832842483521 0.036571492462158 0.069161538238525
0.041278690643311 0.028346596183777 0.068914477539063
0.071255328826904 0.021228206481934 0.044029231643677
0.056611303939819 0.049272089614868 0.015365519237518
0.035001507377625 0.063686609039307 0.063057051239014
0.073708623657227 0.023382684173584 0.038577326812744
0.005635144367218 0.039028167800903 0.052044588165283
0.022305159492493 0.057409752120972 0.062209061279297
0.041884796447754 0.052979066925049 0.071105672683716
0.043051053848267 0.027238516387939 0.017634676513672
0.061249266967773 0.034297139511108 0.017608636245728
0.043817943115234 0.050967295303345 0.014181591815948
0.059082041473389 0.016649944763184 0.051285360183716
0.081418163452148 0.055680219192505 0.039013781509399
0.067047932739258 0.030730892181396 0.022090744781494
0.070284263153076 0.021683814392090 0.036090060348511
0.009659726295471 0.057049842758179 0.039292842254639
0.008461278667450 0.037093479423523 0.054838364562988
0.054663532409668 0.025674808425903 0.066062021636963
0.015129948215485 0.025524085464478 0.051230466308594
0.026819598922729 0.045942878494263 0.068990307159424
0.068277334976196 0.023561794853210 0.029640799751282
0.065064037933350 0.027970416717529 0.063287002334595
0.044948158264160 0.024344279022217 0.066409822387695
0.046064171676636 0.016974083080292 0.057761986694336
0.022305384559631 0.064362202072144 0.032045765914917
0.067255876770020 0.061563388671875 0.058529222564697
0.059622490692139 0.068751835021973 0.033497674026489
0.011511686744690 0.046448644866943 0.027080294189453
0.012468355998993 0.041611546936035 0.060119074325562
0.055292442016602 0.017572317161560 0.056312284240723
0.025359304809570 0.018513284606934 0.050142473754883
0.068355500793457 0.025729078865051 0.059018797607422
0.052352790603638 0.072293851623535 0.044005482559204
0.033102240066528 0.015210912742615 0.037697354812622
0.001521857993603 0.042183226470947 0.046211018981934
0.027716757049561 0.020411766433716 0.056840624847412
0.016028238430023 0.026631478805542 0.054496883697510
0.046694463195801 0.050907517471313 0.014187086830139
0.012889721069336 0.060011861343384 0.038809654617310
0.057432060775757 0.066231420669556 0.027093233299255
0.053384754943848 0.023583603858948 0.064660947189331
0.007231008796692 0.040727640762329 0.054644865341187
0.029951014289856 0.069761922836304 0.037358658027649
0.053825787506104 0.027686676826477 0.067642263031006
0.019270030097961 0.038560730361938 0.021236660003662
0.010196230087280 0.056723220825195 0.036838181266785
0.035981224632263 0.033332726821899 0.070328934478760
0.012627841949463 0.028198495254517 0.051910655212402
0.078464670410156 0.053674938507080 0.055256926422119
0.046360841674805 0.032691674842834 0.014952826004028
0.010993147811890 0.055002321472168 0.032718244018555
0.068460818710327 0.021198965759277 0.051785895996094
0.048584784088135 0.042113631210327 0.013259104633331
0.069801800231934 0.029761320953369 0.024559366683960
0.048446223754883 0.058069748001099 0.017323462677002
0.066490427932739 0.021747339591980 0.030712369155884
0.065428187561035 0.039994160461426 0.018121305427551
0.074459393615723 0.062382534027100 0.045977507324219
0.062761060943604 0.022708333511353 0.059718292770386
0.065723853759766 0.042836506347656 0.067974741210938
0.018283468551636 0.031030249481201 0.060973451690674
0.010997708797455 0.030306757659912 0.052403363189697
0.049968992004395 0.029118470687866 0.016827551994324
0.062933349838257 0.058421253356934 0.021828762130737
0.003781179132462 0.038705232467651 0.048806745300293
0.001962685604095 0.039358183746338 0.041087829208374
0.039922845687866 0.044820491180420 0.072595306549072
0.014271412734985 0.024317691841125 0.043028160018921
0.050553077239990 0.042726083908081 0.072587240142822
0.086591592712402 0.037221283798218 0.045899751129150
0.032410399436951 0.066953427047729 0.028301947364807
0.075725099182129 0.039578123855591 0.061299794540405
0.066130694122314 0.018279840469360 0.043693278427124
0.029347357215881 0.031109911994934 0.067370742034912
0.008266072311401 0.030246057052612 0.040497302551270
0.053014195404053 0.014423159751892 0.037176315383911
0.037938311691284 0.041356788940430 0.013721206855774
0.076859635620117 0.026930579528809 0.035732059555054
0.019897620811462 0.064667406616211 0.036435851249695
0.085068941497803 0.050073486175537 0.037829937362671
0.041354160156250 0.071983123931885 0.036169936676025
0.042635251312256 0.023167090110779 0.065319813232422
0.080718366699219 0.031131570205688 0.035613032798767
0.086973684692383 0.048856939773560 0.043674629364014
0.070028613891602 0.023549715499878 0.031575650177002
0.059741497192383 0.043508192214966 0.015613755912781
0.045929180908203 0.015067890453339 0.032332361907959
0.081402228698730 0.037594541893005 0.030887640190125
0.059320545120239 0.027880745468140 0.019991629104614
0.068867100906372 0.032387827453613 0.063740152511597
0.025957035865784 0.067163977355957 0.034050009040833
0.033069598579407 0.045951755142212 0.014865596733093
0.028756450195313 0.042520660629272 0.016113228282928
0.055123556137085 0.027067622909546 0.019083906326294
0.020464681968689 0.032119745483398 0.063215849609375
0.034004705276489 0.020254300460815 0.060236284790039
0.075699567565918 0.052666916809082 0.058931957702637
0.060913340759277 0.065281668853760 0.058323502197266
0.073041065521240 0.062825092544556 0.037271757354736
0.030978162193298 0.044569505310059 0.015386785831451
0.034220481643677 0.017884530296326 0.029321017608643
0.017890146846771 0.059654630279541 0.056352985382080
0.017099156265259 0.038817842559814 0.022647504615784
0.067167776489258 0.053959720458984 0.064619647369385
0.064195206756592 0.017610291614532 0.046544122848511
0.008437965650558 0.056183527832031 0.043924224319458
0.025993327941895 0.038219596099854 0.068359637527466
0.077047359619141 0.026163739776611 0.047777391738892
0.067166385574341 0.046319897460938 0.019039950714111
0.047395448303223 0.013678301181793 0.037442637329102
0.054998859939575 0.031808817481995 0.069536031951904
0.038237029800415 0.060514107666016 0.019406814651489
0.069753203735352 0.050024160461426 0.064682071990967
0.077772030792236 0.034926395721436 0.057830065002441
0.018364402694702 0.046251729125977 0.021645933341980
0.006346938886642 0.033309769973755 0.038420572052002
0.044474490966797 0.013499208507538 0.038193452301025
0.031306663436890 0.040150577621460 0.070684328994751
0.040927446365356 0.070167282257080 0.030888385162354
0.014612587509155 0.051834888610840 0.026239177780151
0.055992184753418 0.029792389221191 0.068296677246094
0.085702658538818 0.050581147613525 0.045244864273071
0.056590651779175 0.015810998001099 0.034966678237915
0.064015450134277 0.068291644744873 0.048045208129883
0.052540172500610 0.060687323837280 0.019705100631714
0.024681843719482 0.041279068756104 0.017902981300354
0.072476183013916 0.053724853897095 0.024935066757202
0.064588363037109 0.025062155418396 0.061114564285278
0.055564332122803 0.019147219963074 0.027184882888794
0.008194875698090 0.037368891830444 0.031391189651489
0.019502130584717 0.022146921539307 0.051075759658813
0.074855124664307 0.029103409194946 0.056401788940430
0.042705481262207 0.042209793395996 0.013162689247131
0.008298579883575 0.043436607360840 0.056055703201294
0.019400897636414 0.047664682617188 0.064844962081909
0.012340811576843 0.026574512062073 0.038545034179687
0.063909056396484 0.068716913604736 0.045455009460449
0.069229224929810 0.044685383377075 0.019994352416992
0.009736081447601 0.028462494506836 0.042020858535767
0.067400041275024 0.040058885269165 0.066920877838135
0.034345096817017 0.014405451469421 0.044062897186279
0.072084521179199 0.030385909271240 0.025880321731567
0.025912110214233 0.019099548492432 0.052559699325562
0.062788708190918 0.021500278892517 0.027964551467896
0.027281049575806 0.064184516067505 0.058653900756836
0.043838928375244 0.048474631729126 0.013596530914307
0.083578907012939 0.042384864120483 0.032287884140015
0.020431464309692 0.062766336517334 0.054632356109619
0.062570600128174 0.016681724243164 0.043697127075195
0.023834767532349 0.067690859527588 0.040782957763672
0.031015149726868 0.016389616355896 0.050660609817505
0.042887457046509 0.067519187316895 0.060135864334106
0.026993427276611 0.032474140701294 0.019033743362427
0.068807291564941 0.040537071914673 0.019823431930542
0.070274990386963 0.060015912551880 0.028373802299500
0.064580085067749 0.045308198165894 0.068408792190552
0.071856532669067 0.021893968582153 0.046706886901855
0.022700946807861 0.037455416641235 0.019477857093811
0.025768618659973 0.018486722183228 0.035371965637207
0.043246965789795 0.067473561706543 0.025796846580505
0.048854756622314 0.013276217613220 0.043936589508057
0.042331388168335 0.072495552291870 0.047626295166016
0.015223818092346 0.051224186935425 0.060596068115234
0.067039362182617 0.019098121566772 0.038855086669922
0.009739427070618 0.057366233139038 0.045749478302002
0.013219759521484 0.056662623748779 0.031587218627930
0.050291657257080 0.071579321975708 0.050740288085938
0.044357582092285 0.044658955993652 0.072883536529541
0.025798284759521 0.067878439483643 0.049497458343506
0.028847012710571 0.060853724975586 0.022838095970154
0.014334837779999 0.027113158493042 0.033125512008667
0.031362759170532 0.028941824493408 0.066995158996582
0.040243606872559 0.030464973106384 0.016131711921692
0.005593789405823 0.052803744125366 0.042313666381836
0.026259892959595 0.054859097747803 0.066051375961304
0.027630752143860 0.064883858184814 0.028080789642334
0.059752561492920 0.015621223640442 0.043586340026855
0.064189125442505 0.020099280967712 0.054561036834717
0.081855378875732 0.049953552398682 0.053795624008179
0.068304090957642 0.061964408798218 0.028973455429077
0.015365677909851 0.061807861099243 0.037759871711731
0.070201690521240 0.036686891136169 0.021436699676514
0.013976463375092 0.037381747665405 0.025463490638733
0.021920283432007 0.034020039100647 0.021000533065796
0.063079701995850 0.065344579620361 0.029425930404663
0.029675624389648 0.062793763198853 0.024304442138672
0.043258003082275 0.069846075439453 0.029803545799255
0.048440673599243 0.044590643615723 0.072756382598877
0.062936379241943 0.062640816574097 0.060376105499268
0.016026162185669 0.062873198394775 0.040567077865601
0.058168592987061 0.051578622665405 0.069602224197388
0.073282562561035 0.023890732727051 0.050214652786255
0.071551184082031 0.025390949249268 0.030479989585876
0.044940109863281 0.019929353027344 0.062084599151611
0.069585087585449 0.063238626403809 0.053739825363159
0.004016388921738 0.043255612869263 0.035439809875488
0.028499144439697 0.045953623199463 0.016353031692505
0.044710856475830 0.023162699050903 0.020649144744873
0.054731975326538 0.022213996047974 0.062989450073242
0.078980659332275 0.052554810867310 0.030488512878418
0.023838832244873 0.026766507835388 0.061696070251465
0.082600999298096 0.032832209014893 0.036835309410095
0.029508113670349 0.020671115798950 0.027557305984497
0.042553011779785 0.060821477355957 0.066979611358643
0.060369574050903 0.015915823020935 0.040575324325562
0.048280560836792 0.072698625869751 0.045950715332031
0.003186971783638 0.037361433105469 0.045680103607178
0.082752127380371 0.033316098861694 0.049638877029419
0.017294107170105 0.026747158813477 0.029857145538330
0.027693572883606 0.062367256469727 0.061114015121460
0.047439421920776 0.019347910079956 0.061193378295898
0.088442526855469 0.040397026138306 0.044896212768555
0.052705889434814 0.048702318649292 0.071715393066406
0.073043703308105 0.063484881362915 0.040546421203613
0.035090285110474 0.053968705139160 0.016361726036072
0.082515680847168 0.044089837722778 0.055000867538452
0.009610561504364 0.046537487869263 0.057053155746460
0.001732634916306 0.046657129058838 0.043708132858276
0.046291678543091 0.070636646270752 0.054583827133179
0.021560416831970 0.020151170196533 0.037366128005981
0.054011202316284 0.062703173675537 0.021766276741028
0.028742714347839 0.059180544357300 0.064516787185669
0.007522294063568 0.045704136276245 0.054919393234253
0.070609170074463 0.064359735336304 0.036767998580933
0.057280577087402 0.024981939239502 0.064690737075806
0.066382044601440 0.063378595657349 0.056906929626465
0.013682664108276 0.025894210624695 0.049120376358032
0.060907245941162 0.024048905410767 0.023774174957275
0.054989578170776 0.040045210189819 0.014379925479889
0.064472210388184 0.034550096969604 0.018944119377136
0.034995070457458 0.026941274719238 0.066911686096191
0.068003554306030 0.048634501419067 0.066094683380127
0.009264398117065 0.045628522720337 0.029161237945557
0.014243547172546 0.053877597961426 0.027845358161926
0.033289597206116 0.026086710548401 0.020293050270081
0.010691017684937 0.030981376152039 0.033221050758362
0.012601293029785 0.054150347824097 0.029812381935120
0.082136847839355 0.053486075668335 0.049816373977661
0.064221746673584 0.019363595008850 0.033069555816650
0.083116277008057 0.039532781829834 0.032263261795044
0.026044681510925 0.059287779846191 0.063065243682861
0.077762199859619 0.026260968780518 0.045036150512695
0.022838696899414 0.025230037498474 0.059511780166626
0.049335450515747 0.026211465263367 0.018506537094116
0.023071618881226 0.058395919799805 0.024079730606079
0.058635670318604 0.017422163619995 0.053823500823975
0.016498455448151 0.030527224426270 0.059093965530396
0.074487301940918 0.023886285400391 0.047165092086792
0.064199942169189 0.030933416595459 0.065676711196899
0.019766402168274 0.050125958328247 0.064400283432007
0.066833511276245 0.051438315811157 0.020131933708191
0.068383760223389 0.065392626953125 0.035672196197510
0.045061159973145 0.072501795654297 0.048129293212891
0.069593995742798 0.063563501815796 0.032999429397583
0.040807760162354 0.030824049720764 0.070126972732544
0.049371911392212 0.059997988204956 0.018638517589569
0.071273712310791 0.051579068298340 0.022949067573547
0.037163988456726 0.072142822570801 0.040208879013062
0.065251352310181 0.017974770965576 0.040416372909546
0.064191569671631 0.063668819732666 0.058241483230591
0.024735670776367 0.057314031066895 0.022248676643372
0.062651322708130 0.041746452178955 0.069296227416992
0.060865622024536 0.030169214630127 0.019224233436584
0.041806738662720 0.014967410354614 0.053056156921387
0.017301394844055 0.039447305831909 0.063634501495361
0.059956629867554 0.069579501419067 0.036589081459045
0.069646724472046 0.020650072021484 0.038396282806396
0.015835065555573 0.061058644104004 0.051318350524902
0.077329782867432 0.030652847900391 0.055096462554932
0.017870021343231 0.043604052810669 0.021731956253052
0.057560214004517 0.022086484260559 0.024276025161743
0.014660139694214 0.054838846206665 0.057876766433716
0.065574328155518 0.065676067504883 0.053598505706787
0.059949450225830 0.042103530197144 0.070336343688965
0.062011992492676 0.058800014343262 0.064385127410889
0.048729466247559 0.062146168518066 0.020189942512512
0.014892787094116 0.061229105453491 0.048966723022461
0.033094731826782 0.018425733489990 0.057008461914063
0.072868745117188 0.024967760009766 0.032809688796997
0.051085171966553 0.043388334960938 0.013523741950989
0.046232040252686 0.039779784011841 0.072779821090698
0.052254652328491 0.016198838195801 0.031183585472107
0.037552148246765 0.041934126663208 0.072291200332642
0.060413925781250 0.069004783477783 0.051065149993896
0.050093206558228 0.023167094612122 0.064981816406250
0.046195579376221 0.019097009735107 0.025056175384521
0.019258715972900 0.028243832778931 0.059597431716919
0.061003943786621 0.036524552459717 0.069187213897705
0.016083608322144 0.056992851257324 0.057403580780029
0.084244862670898 0.052773175506592 0.044621095199585
0.064205982971191 0.042253159332275 0.017379945526123
0.033703475418091 0.031785556793213 0.069185611419678
0.011733210201263 0.057331793365479 0.051251064453125
0.049921772918701 0.072249612426758 0.047881197204590
0.023400608520508 0.066442214050293 0.050387940979004
0.003820964531898 0.039807705841064 0.036482275848389
0.041234415435791 0.021363676643372 0.063427178649902
0.076172784729004 0.024941805267334 0.040707461242676
0.076314793090820 0.058749320220947 0.034045527954102
0.054561766052246 0.022706969604492 0.022480317993164
0.054817977981567 0.066244281005859 0.025970737953186
0.031150453338623 0.018212716445923 0.030598588714600
0.072786874694824 0.052179538421631 0.061687117080688
0.067658841476440 0.051151440734863 0.065531925506592
0.043832883071899 0.072242896423340 0.036609339752197
0.073053466720581 0.033960488586426 0.061522408447266
0.076562186889648 0.059972582626343 0.037257154998779
0.007125663871765 0.036180258255005 0.033518515243530
0.078899329071045 0.044829691925049 0.058744746856689
0.059366521835327 0.067080121841431 0.029632564544678
0.014130529708862 0.031003707313538 0.057178126525879
0.068039263458252 0.020422018241882 0.035742336120605
0.066705700149536 0.034112116317749 0.065806493911743
0.065127632904053 0.028775711441040 0.022192223052979
0.056916922607422 0.044083198242188 0.014772673263550
0.047920818023682 0.065852808227539 0.062216218414307
0.082662361602783 0.031677376022339 0.039561725463867
0.021387747573853 0.028016618499756 0.061080345077515
0.019728154258728 0.057302876739502 0.060442725372314
0.069110357971191 0.020107844772339 0.046293033447266
0.049309788360596 0.020552451400757 0.062463846282959
0.034815941772461 0.069569913558960 0.031958685188293
0.010438402328491 0.043516717758179 0.058277156372070
0.025780245628357 0.028501793479919 0.064224492492676
0.076586242065430 0.035615920410156 0.026738378944397
0.013727342185974 0.052225488128662 0.058741235809326
0.042798960647583 0.049602897796631 0.072161107025146
0.017317242946625 0.042363811340332 0.063939008331299
0.072539728469849 0.033813254165649 0.024177344474792
0.028501077766418 0.057832468719482 0.020642104644775
0.081501924438477 0.043592821960449 0.029849812850952
0.037105599288940 0.056816214065552 0.017229642314911
0.004030123643875 0.047666051025391 0.037001525993347
0.026922949752808 0.062931918411255 0.026032235298157
0.070903490371704 0.021085252838135 0.040714874954224
0.069055905227661 0.047865924148560 0.020343807411194
0.059532463836670 0.068486363830566 0.053371124877930
0.013688695907593 0.061108951110840 0.041034726867676
0.022396196899414 0.023773542518616 0.057420105209351
0.062800591735840 0.068681632080078 0.037442247962952
0.042388852310181 0.063134690399170 0.065057078857422
0.028111061172485 0.039886776428223 0.016529504585266
0.026027661933899 0.048880337753296 0.068132738342285
0.032970699577332 0.067405438385010 0.057288202362061
0.023093335609436 0.029582228279114 0.063393094482422
0.075153374633789 0.035124470558167 0.060363677291870
0.076474257659912 0.038368153915405 0.025654354324341
0.071085056533813 0.022813835983276 0.051569606475830
0.013954385414124 0.028942416419983 0.054902382659912
0.030698714332581 0.039987520980835 0.015589790763855
0.013557161045074 0.044274406280518 0.024986501350403
0.066648978729248 0.019207913818359 0.048733994598389
0.014588680877686 0.036785256729126 0.060884068527222
0.067299341735840 0.058697829360962 0.024660723419189
0.042460855789185 0.056345522155762 0.069728968505859
0.019300639228821 0.034496501731873 0.022455610122681
0.065093143615723 0.068279635162354 0.043009736022949
0.004813418617249 0.035524961776733 0.047450589752197
0.065902809143066 0.048648793182373 0.018811921691895
0.026898277893066 0.042747055664063 0.069189464569092
0.009158366174698 0.053545173797607 0.052217660293579
0.020449433670044 0.036283813896179 0.021089162254333
0.030365090560913 0.049447160339355 0.069719236602783
0.023570687255859 0.020728469657898 0.053472405090332
0.064401228713989 0.050977189254761 0.067313768539429
0.075905044860840 0.061479330596924 0.043076526947021
0.051277802429199 0.046376200256348 0.013741376247406
0.080259139709473 0.050074782562256 0.030358955230713
0.064770496368408 0.066129811859131 0.032517745208740
0.053510369415283 0.071918255081177 0.039765627288818
0.016291066207886 0.045460802688599 0.022963568649292
0.048557807540894 0.035286467132568 0.014266146163940
0.063821352233887 0.026617950019836 0.023029202728271
0.047299551696777 0.067718835372925 0.026216869125366
0.039249507827759 0.060645488357544 0.066715211486816
0.054060055389404 0.025021807632446 0.020316180419922
0.078615960540771 0.036207585906982 0.028450588455200
0.060244265670776 0.017824230308533 0.032602109375000
0.040854466094971 0.039948120727539 0.013427548255920
0.046233242111206 0.061010862350464 0.066918856735230
0.026005987968445 0.068657014236450 0.045851339187622
0.084167745666504 0.035789793777466 0.036123307266235
0.030959486122131 0.053714568328857 0.068569107513428
0.037631261596680 0.058296350097656 0.068024156951904
0.033850093154907 0.056219394531250 0.017737985706329
0.039079870223999 0.058387817382813 0.017828597736359
0.054557161178589 0.014237062988281 0.045318119125366
0.044173171081543 0.020173690414429 0.023692327041626
0.010781656723022 0.039970834503174 0.027708240509033
0.058420938262939 0.018907154350281 0.056922423248291
0.054733424758911 0.046282000656128 0.014361567878723
0.020849990158081 0.051148546371460 0.021342884941101
0.002425719604492 0.040508555908203 0.038677931823730
0.046995134887695 0.031070351943970 0.070406771697998
0.000758803941011 0.041535721817017 0.043885422744751
0.078240539550781 0.046102365570068 0.026866795501709
0.057658028182983 0.022604028396606 0.062296441345215
0.034312439575195 0.071661385955811 0.043361930084229
0.083552961273193 0.052829712371826 0.038545871429443
0.005500954275131 0.043547542953491 0.033357898330688
0.032587482261658 0.065865281448364 0.059462287902832
0.030966762542725 0.022918595733643 0.023992665634155
0.077451409149170 0.037074873123169 0.059118898468018
0.070872224044800 0.042218080368042 0.020977670745850
0.050509684295654 0.013826868000031 0.038418771514893
0.053030148162842 0.041173386230469 0.072120338363647
0.055463637084961 0.068018732833862 0.029013656921387
0.015573152675629 0.056307161712646 0.028530932922363
0.040741401367187 0.014563840217590 0.034347216949463
0.056747861175537 0.054716418685913 0.017236073608398
0.035736912002563 0.017653067874908 0.056960630645752
0.079750487976074 0.056043612594604 0.035532143669128
0.042979640045166 0.062482454833984 0.020331525497437
0.049670818557739 0.015181888084412 0.032783468475342
0.066592946014404 0.033102120780945 0.020589216117859
0.044299924392700 0.052237290649414 0.071486355743408
0.051130374450684 0.072457308883667 0.041582603302002
0.057978010635376 0.070385264282227 0.048900908889771
0.064080404510498 0.065146349487305 0.056103962097168
0.069997131500244 0.031966186676025 0.023292639312744
0.020371096801758 0.041050535583496 0.020216111068726
0.028456530227661 0.039039632720947 0.069516036987305
0.039890345993042 0.016718808555603 0.056697554168701
0.031699851226807 0.017504968070984 0.054319377746582
0.032748040657043 0.021324116592407 0.024980665359497
0.063912090301514 0.039686156082153 0.068591677246094
0.046442198944092 0.072265353622437 0.036717450752258
0.011811437911987 0.050937982559204 0.057607081985474
0.015285389709473 0.025407451171875 0.034782784881592
0.051308033447266 0.058443242416382 0.068110020065308
0.031618201370239 0.019349726371765 0.028292960433960
0.085458100585938 0.034793745651245 0.042824604797363
0.019924180984497 0.061881588592529 0.030498442840576
0.005850670909882 0.047981009979248 0.034181754341125
0.043399331741333 0.017057785549164 0.057868956604004
0.003139926562309 0.041542005691528 0.049016318817139
0.012059626197815 0.037582770881653 0.058918012542725
0.054854573898315 0.065376053009033 0.061224239501953
0.063942010726929 0.018190200729370 0.049954313125610
0.038428512420654 0.044528997726440 0.013643518180847
0.061515854492188 0.069653670043945 0.045831078643799
0.070171612548828 0.047305142364502 0.065123806762695
0.005620538635254 0.041465113754272 0.052741454544067
0.075634469146729 0.044821265411377 0.061614969558716
0.073484137191772 0.027891359634399 0.029498604583740
0.049196948699951 0.014437197189331 0.051224200439453
0.042102247314453 0.015880876846313 0.030664456863403
0.029688048095703 0.054758834838867 0.018456068038940
0.037873600387573 0.013922803993225 0.039246874542236
0.068753707580566 0.021652851905823 0.033609656181335
0.076042128753662 0.032474151954651 0.058017352371216
0.040280990524292 0.051315208587646 0.014501070117950
0.041484248962402 0.064801816711426 0.063315738906860
0.064289982528687 0.045937940521240 0.017565341205597
0.030000072174072 0.070260748138428 0.045571814804077
0.050200748138428 0.066988578033447 0.025663055419922
0.065614183044434 0.023200028686523 0.027800196189880
0.076056226959229 0.027906511154175 0.053390156555176
0.030386989593506 0.015970788917542 0.047877154998779
0.003763138594627 0.045699738464355 0.049696044082642
0.034861234283447 0.066769772262573 0.026797357788086
0.055657820510864 0.052584659271240 0.016074434585571
0.004911969890594 0.035594534530640 0.038202292938232
0.012712431182861 0.025712815513611 0.041607378692627
0.035407166137695 0.015717231655121 0.033673278160095
0.026028100814819 0.043926853103638 0.017248432044983
0.033643065147400 0.059918192901611 0.065894931793213
0.009117434902191 0.042169848480225 0.029113217620850
0.015622211685181 0.062730618362427 0.043189794235229
0.046031289367676 0.035949325866699 0.072091862869263
0.040537711105347 0.035945423202515 0.071864036407471
0.025788442573547 0.017485671939850 0.040116299896240
0.066790284881592 0.027471012992859 0.024168607368469
0.051342000579834 0.034650247344971 0.014760665931702
0.034811224365234 0.035654285354614 0.015247675209045
0.058078435592651 0.060986789169312 0.021593623237610
0.055044562072754 0.070024909286499 0.052890115890503
0.046410054855347 0.067223557128906 0.060581816864014
0.029025259132385 0.067903390426636 0.032499627304077
0.035421809005737 0.060929122467041 0.020373491516113
0.056894150314331 0.014734231796265 0.043421370315552
0.021128447723389 0.042149556427002 0.066313372116089
0.083425267181396 0.045589221496582 0.032392092475891
0.051973012313843 0.032185336799622 0.070326751327515
0.051210030212402 0.055560213394165 0.069680101928711
0.057213246002197 0.033510120239258 0.069555261688232
0.088502952880859 0.046133753433228 0.042970659866333
0.042662115325928 0.034016032905579 0.071509312591553
0.021162007484436 0.066327951965332 0.042052876586914
0.066272544937134 0.019876840362549 0.051587773895264
0.060672041778564 0.037815708618164 0.016403108005524
0.007379569988251 0.047114816589355 0.031719567108154
0.057795706253052 0.064326695480347 0.061255978469849
0.035544099235535 0.024983183860779 0.020435542526245
0.006025638103485 0.032664565505981 0.042925641937256
0.070663780364990 0.039184625473022 0.021160411758423
0.050264226074219 0.015363172912598 0.053537728576660
0.040361434020996 0.066910929870605 0.060639335021973
0.055290195846558 0.064374814834595 0.023862871665955
0.059717095413208 0.040075234146118 0.015751704063416
0.076675296630859 0.049380972595215 0.026379153785706
0.026962485046387 0.036814947586060 0.017586327590942
0.060785196533203 0.057240780715942 0.066030750808716
0.022678750686646 0.046317543258667 0.066972256164551
0.042864585723877 0.068966900177002 0.057835619659424
0.048396844024658 0.056122557144165 0.069766064071655
0.038562728958130 0.028888145980835 0.017173545455933
0.020450817832947 0.053865817947388 0.063238761444092
0.006105557193756 0.051146268692017 0.049597734756470
0.012946573028564 0.059319478302002 0.049571401901245
0.010406811904907 0.029244053649902 0.036517197265625
0.019998156051636 0.065635965042114 0.044427852554321
0.041931461868286 0.057962260437012 0.017229562416077
0.027485189971924 0.068037336883545 0.051461362686157
0.011438367748260 0.032409424896240 0.055299824218750
0.008664652709961 0.031808801727295 0.035583256416321
0.070188573608398 0.040054235382080 0.065308883972168
0.054192736968994 0.067679156036377 0.058152941818237
0.070132108764648 0.044562618255615 0.065489486846924
0.053205322418213 0.052371601715088 0.070603862991333
0.025803116950989 0.017407188777924 0.045224756774902
0.051278698196411 0.038977982330322 0.072196181488037
0.031652060470581 0.016804568138123 0.033520333786011
0.074744643707275 0.050604185485840 0.025166422271729
0.036125749244690 0.039564736862183 0.071831383666992
0.066863053588867 0.036719402084351 0.066564267959595
0.053015509796143 0.067644023056030 0.027384598464966
0.021011849441528 0.065956064529419 0.046789297485352
0.016179753627777 0.053638518142700 0.060104926605225
0.084557778015137 0.052288281860352 0.041107500076294
0.048084419326782 0.015857197532654 0.030751589355469
0.059856695556641 0.062065959091187 0.023357890777588
0.031182448883057 0.015266264629364 0.043572520904541
0.047104283447266 0.022101818084717 0.021678986701965
0.073540674057007 0.043919799499512 0.063248655395508
0.057976345138550 0.056539345474243 0.018507752456665
0.071079227294922 0.024459182548523 0.054700623474121
0.088204783935547 0.045510916137695 0.045706085357666
0.051498165664673 0.070616066131592 0.053238236236572
0.060932349929810 0.026614736061096 0.021583641510010
0.046950391540527 0.033532608947754 0.071348970260620
0.037881891860962 0.019445352897644 0.025558446464539
0.053148420944214 0.037408712959290 0.014399851799011
0.039302754211426 0.070767779388428 0.032886742782593
0.038092289123535 0.022117786598206 0.063687221221924
0.039891633377075 0.019412268028259 0.060918445281982
0.049317287597656 0.036266004333496 0.071949714965820
0.032055308761597 0.070521952056885 0.048411171798706
0.027036054992676 0.069240338745117 0.043440888137817
0.036597618255615 0.060181048812866 0.066529661636353
0.016635182609558 0.027901881523132 0.056799158477783
