# This PCD file was generated using the MATLAB® pcwrite function
# from Computer Vision Toolbox®.
# .PCD v.7 - Point Cloud Data file format
VERSION .7
FIELDS x y z
SIZE 8 8 8
TYPE F F F
COUNT 1 1 1
WIDTH 859
HEIGHT 1
VIEWPOINT 0 0 0 1 0 0 0
POINTS 859
DATA ascii
-0.666399436846640 -1.584345320228561 4.691941261291504
-1.615452128306296 -0.655195096496566 1.455907106399536
-1.221964317217734 -1.622357944015487 -3.672578811645508
-1.615452128306296 0.921727260585801 -0.595838010311127
-1.615452128306296 0.826424976821915 -3.149544239044189
1.740172905072305 -0.741660336021407 0.739633798599243
-1.615452128306296 -0.039722392324432 -1.954026579856873
-0.365597563639548 1.733266850944535 -0.221035078167915
-1.528884488001730 -0.808440783981307 4.793750286102295
1.089860958203409 1.733266970153825 -0.916641533374786
1.740172785863016 -0.335234353307708 -0.507096588611603
-0.959943729296591 -1.622357944015487 3.372280359268188
-1.615452128306296 1.126510402198807 4.212837219238281
-0.024128171459105 -1.622358063224776 2.945420742034912
1.093620342358682 1.733266850944535 -4.479970455169678
1.740172785863016 1.170790812011735 -3.125612974166870
-0.911815422430899 1.733266850944535 3.605462074279785
0.091201220795248 1.733266850944535 -1.692098140716553
-0.882371979609396 1.733266970153825 -0.573408246040344
-1.124181705370810 1.667647501464860 -4.770817279815674
1.673405212506387 -1.615479687217696 -0.952165126800537
-0.371844905272391 -0.432953605417236 4.793749809265137
1.740172785863016 -0.991877535346969 1.058583140373230
1.651667398556802 1.017274400230424 4.793749809265137
-0.943006831065085 1.733266850944535 -4.170968055725098
-0.311701583519842 0.501111170288102 4.793749332427979
-1.345941859141257 -1.622357944015487 -4.081979751586914
-1.338454681292441 1.733266970153825 -2.897667169570923
-1.615452009097006 -0.925011435512527 -0.550892710685730
0.146100488647554 1.733266970153825 -2.108192205429077
-1.493754225626852 1.733266970153825 -2.657574653625488
1.460684818371866 1.733267089363114 4.396027565002441
1.740172785863016 -0.086226174596771 -0.317294657230377
0.098186713799570 -1.622357824806197 2.634972333908081
-0.515033560648825 -1.622357944015487 -1.689203381538391
1.740172905072305 0.332487544055955 -3.454561948776245
-1.399098473444846 -1.622357944015487 0.241072699427605
0.616677564725015 0.186414470907227 -4.793749809265137
-1.564210849657919 -1.599953392509444 1.512955069541931
1.740172666653726 0.419396480556504 3.004286289215088
1.674088281735513 1.292269011970536 4.772146224975586
-1.615452009097006 1.209778806205766 2.434472084045410
-1.615452247515585 -0.748022178176864 -1.364731311798096
-1.615452009097006 1.315628310676591 1.351206779479980
-1.615452128306296 -1.041601398948653 4.577605724334717
1.009866398915384 1.733266850944535 1.603533148765564
1.740172785863016 -0.176808992389663 -1.576183557510376
1.740172666653726 -0.608224967483505 -4.010485649108887
-1.615452128306296 1.554608723159806 -2.434591293334961
-0.897945719614889 -1.483530858520492 4.793749809265137
-1.306292014971640 1.733266970153825 -3.529328346252441
0.672988576039407 1.733266970153825 3.335401296615601
0.569442433461282 -1.622358063224776 2.677337169647217
-1.607974367991354 -1.556189993385299 3.104331016540527
-1.571623640910055 -1.592540601257308 3.437193155288696
-1.615452128306296 -0.879100540641769 3.929692029953003
1.740172785863016 0.322027465339677 0.666767239570618
-1.161640125170615 1.147612473007218 -4.793749809265137
1.188299101933572 -1.622357944015487 -2.069114208221436
0.367786151513193 -1.622357944015487 -0.226570188999176
-1.073865848437216 -1.622357944015487 -4.241232395172119
1.195303720578287 1.733267089363114 4.470185279846191
-1.615452009097006 0.761515280242936 -1.982093334197998
0.685663384541605 1.356956621643082 4.793749809265137
-1.566446023836996 -0.426456132892593 -4.723350524902344
1.740172785863016 1.417395373817460 -4.543927669525146
1.702079099759195 -1.586805799964889 2.819960355758667
1.349224967106912 1.082831641670243 -4.793749809265137
1.088297051533792 -1.622357944015487 -2.343030452728271
1.695320171460245 -1.593564609054549 -0.581149458885193
-1.029019671336081 1.733266970153825 -1.032807826995850
1.597699922665689 1.733266970153825 0.942904710769653
1.059680325135324 1.469301482673661 4.793749809265137
1.426360172375772 -1.622357944015487 2.793851375579834
-0.140819030657675 1.733266970153825 3.182674407958984
1.667956513508890 -1.522183516983016 4.789665222167969
0.389388186081979 -1.622358063224776 -2.210853338241577
1.697273296460245 -0.689446071151717 -4.705903053283691
1.209318203076456 1.733266970153825 -1.465534806251526
-1.615452128306296 -0.143142679695113 2.675024032592773
-0.219771462336447 0.255303686495797 -4.793749809265137
1.237791818722818 -0.474544385436996 4.793749809265137
-1.087793546572592 -1.151920774940475 4.793749809265137
-1.615452247515585 -0.742399075988754 -2.832736968994141
-1.276983815089133 -1.622358063224776 1.528839111328125
-0.435464340105917 -1.622357944015487 -0.322131156921387
-1.615452128306296 0.932177862163560 -1.578837394714355
1.502792758092020 -0.865334609512313 -4.793749809265137
-0.820491093054678 -1.622357944015487 0.782469093799591
-1.615452247515585 -1.248583296302779 -3.653326749801636
-0.094190898195174 1.731062909599320 -4.589631080627441
-1.615452009097006 0.788399061199204 1.473271489143372
-0.258947091952231 1.733267089363114 0.927811622619629
-0.976273971453574 -1.622357944015487 -0.055946901440620
-0.745699840441611 1.733266970153825 0.092057406902313
1.740172905072305 1.322016021247880 2.779875040054321
-1.615452247515585 0.998188039299027 1.672228813171387
1.109487098797891 1.733267089363114 1.856252670288086
-1.611469465151694 1.032625338073746 -4.594712734222412
1.061821920022104 1.111185332771317 -4.793749809265137
-0.260463612929251 1.733266970153825 2.929411172866821
-1.615452128306296 -0.658998707298263 -3.784641265869141
1.740172785863016 1.257666369911210 0.860553622245789
1.740172785863016 0.761171123024003 2.117184638977051
-1.615452128306296 0.664432546134965 -0.135157480835915
1.740172905072305 -1.183806637290939 -0.015065579675138
-1.467637020007040 -0.822535613540633 -4.793749809265137
0.931375128373239 -1.505874970916732 4.793749809265137
0.858769518479440 -1.622357944015487 1.899691581726074
1.711438697918985 -0.045307600859626 4.665431022644043
-1.615452128306296 1.449709197517411 1.958498477935791
-1.178922968760397 1.733266970153825 0.319590181112289
-0.533998328104880 -1.622358063224776 0.557659149169922
-0.895817595377829 -0.712106684211715 -4.793749809265137
0.098825433447693 -1.482574919227584 4.793749809265137
-0.356233733549979 -0.516591707233413 -4.793749809265137
1.740172785863016 1.075911184783952 -4.176845550537109
1.740172785863016 0.629038592811600 3.304428815841675
1.046922308549020 -1.622358063224776 2.174565553665161
1.194187444790933 1.733266970153825 2.569195270538330
-1.578295784846213 -1.585868457321151 2.749249458312988
1.322897237881754 0.281568413611428 4.793749809265137
-1.615452009097006 1.140491863723771 -3.137704372406006
0.018766873672340 -1.622357944015487 -4.327550888061523
-1.490968900576498 -1.622357824806197 -3.711929321289062
1.740172785863016 0.194565972324387 -2.739745378494263
-0.412012415781882 1.733266850944535 2.458645105361938
-1.615452128306296 -0.486723164085372 -3.525996208190918
1.438015383824442 -1.622357944015487 4.031791687011719
1.740172666653726 1.037538668151871 -1.965485572814941
1.720694822415445 1.679099222656266 1.216547608375549
1.740172785863016 -1.218569496635421 2.272017717361450
0.023609825566147 -1.128645161155685 -4.793749809265137
1.740172785863016 -0.952783325675948 -0.552628755569458
-1.615452128306296 -1.292033294204696 3.033494710922241
-0.664860385313895 1.733266970153825 -3.792600154876709
1.740172905072305 0.759059151645676 3.702332735061646
-0.545248466387656 1.733266970153825 1.740129590034485
-1.615452247515585 -0.186715254549011 1.105059504508972
1.740172785863016 -1.261870482925399 -1.268346786499023
1.089803380116556 -1.622357824806197 4.518688201904297
-1.615452128306296 -1.255056241516097 -2.270138740539551
-1.615452247515585 0.066095274884180 0.956577181816101
1.469146174534891 1.733266970153825 2.661356925964355
-1.615452009097006 -1.516999939445480 -1.878674745559692
1.740172905072305 -1.501252392295821 1.479510426521301
-1.354117947474387 1.733267089363114 3.195271015167236
-1.259175735369589 -0.089943701390250 4.793749809265137
-1.615452128306296 -0.363312819961532 0.242131471633911
-1.615452128306296 0.428854485984818 1.440825343132019
0.438285392865274 1.733266970153825 1.379832744598389
1.740172785863016 -0.129322940472587 3.872288227081299
1.419551653012369 -1.622358063224776 -3.580985784530640
0.828566056832407 1.733266970153825 -0.785197734832764
-1.615452247515585 -0.806493857864364 -4.558544158935547
-1.020527201548483 -1.535311201576217 -4.793749809265137
1.740172785863016 -0.791011551383956 -3.183857917785645
-0.644542473212149 -1.622357944015487 1.025418519973755
-1.615452128306296 1.481862684722916 -4.234668731689453
-1.295055466547873 1.733266970153825 1.201141357421875
1.708054226979349 -1.007078627113326 -4.675100326538086
-0.477264600649741 -1.251360872749313 4.793749809265137
-0.118241849199202 1.100821038719193 -4.793749809265137
0.791723472222421 1.629998823638932 -4.793749809265137
-1.615452009097006 1.445149561401383 -1.091151714324951
-0.739143925562765 0.312803020711915 -4.793749809265137
-1.548398929491904 1.192023059364335 4.774914264678955
-1.020803528681662 -1.622358063224776 3.100600242614746
-0.959028440371420 1.733266970153825 3.917939662933350
-0.750297265902426 -1.390629986289962 -4.793749809265137
0.164205816730592 -1.622358063224776 1.066600203514099
-0.708065169707205 -1.622357944015487 0.004157248884439
-1.615452128306296 -0.986957052711471 -0.205730438232422
-0.590001302615073 -1.622357824806197 -4.089734554290771
1.421146673306558 -1.622358063224776 2.488125562667847
1.740172785863016 1.466136476036088 2.364245653152466
-0.516071873560812 1.733266970153825 -2.947082757949829
-1.116827207461264 -1.622357944015487 0.219464525580406
1.727806848630045 -1.561078051094039 3.537933111190796
1.169249576672647 -1.622357944015487 -0.487341642379761
-1.057280140772726 -1.274900892738326 -4.793749809265137
1.412190598591898 -1.622358063224776 -1.017751812934875
1.681731266125772 -1.607153633598312 -0.169773042201996
1.721445364102457 1.678348561759965 -3.440454483032227
0.873455924138162 1.733266970153825 3.719432592391968
1.702055496319864 -1.586829403404220 -1.566217660903931
-1.615452128306296 1.456329843040482 1.575869798660278
1.638773483380411 -0.259791145090087 4.793749809265137
-1.615452247515585 -0.209234813217147 0.475627273321152
-0.380260902300741 -1.622357944015487 0.291546285152435
1.740172785863016 -0.181435966853126 2.880262851715088
1.055343550786112 -1.622358063224776 -1.805340647697449
0.563368481740091 -1.622358063224776 1.034899950027466
-0.420793223038580 -1.622358063224776 4.578796386718750
1.740172785863016 0.235900720592515 -0.957373142242432
1.740172905072305 0.130688613291756 3.842055797576904
1.740172785863016 -1.274226525787338 -4.164200782775879
-1.615452247515585 -1.515753963951095 -3.054668426513672
0.472678584202860 -1.622357824806197 2.363456249237061
1.740172785863016 -1.158471563819869 -2.937275409698486
1.740172785863016 0.940042933460252 0.992638945579529
-1.615452128306296 0.778785845275895 3.609978675842285
1.740172666653726 -0.446956375602706 -0.253525555133820
-0.347094791785147 -1.622358063224776 -0.879137396812439
-0.727294879809286 1.733266850944535 2.295392990112305
-1.275835472002890 1.683211585517899 4.726348876953125
-1.615452009097006 0.826139053340928 1.943001031875610
-0.355141418829825 -1.622357944015487 -3.820822715759277
0.788825136765573 -1.622357944015487 1.213834285736084
-1.615452128306296 0.036010315652863 -3.712724685668945
1.740172905072305 0.541251322265641 0.467795103788376
-0.781503218069937 -1.622357944015487 -1.606885313987732
-1.395169692889120 -1.622357824806197 -3.356002092361450
-0.430916833535101 0.847993096347825 4.793749809265137
1.413064998730753 1.733266970153825 -1.940396547317505
1.740172666653726 0.007816957320945 -1.804939866065979
-1.041540342226889 1.733266850944535 4.211128711700439
-1.615452128306296 -0.716854194168075 0.958655714988708
1.740172666653726 0.800907453533189 2.998006820678711
-1.615452009097006 0.004754344012515 0.665992438793182
-1.615452128306296 0.666312953468339 2.153398990631104
1.740172905072305 1.570404669281022 3.869089603424072
-0.013415383950140 -1.621824005607589 -4.584858894348145
1.234381360158060 -0.855373242858871 -4.793749809265137
0.194544163688753 1.733267089363114 4.063986301422119
-1.615452128306296 -0.270876625541671 -3.285873174667358
1.740172785863016 1.047847708698289 0.015054121613503
0.530492526635263 1.733266970153825 -0.555689990520477
-1.615452009097006 -0.996195534233077 -2.114775419235229
0.991434437378977 -0.165957191947921 4.793749809265137
1.740172666653726 1.356198212142960 -1.181356072425842
-1.615452247515585 -1.437285283569320 1.733193993568420
1.740172785863016 0.210840737458245 -2.355483055114746
-1.615452009097006 0.432569464679734 -0.847255349159241
1.468788546666238 -1.622358063224776 -1.695238113403320
-1.542613106623556 0.223593449231164 -4.791444301605225
-1.263157087222006 1.733267089363114 2.452080011367798
-1.607876974001791 1.667196413513200 3.237624406814575
0.104880091890428 -1.622357944015487 -0.308617115020752
0.029826545312736 1.733266970153825 2.317465066909790
-0.629731851473715 1.733266970153825 -4.557043075561523
0.558148783787821 -1.622358063224776 3.735984802246094
0.522920650586221 -0.662147263053878 -4.793749332427979
-0.768156009570029 -1.622357944015487 0.300531119108200
1.740172785863016 -1.287229398254379 1.991040706634521
1.740172666653726 0.896188756462113 -0.894952356815338
1.740172785863016 1.235840460296647 -2.782566070556641
1.740172905072305 0.282686432834641 -1.538716197013855
1.740172785863016 -0.602960923675521 0.052483260631561
1.555794996365640 -1.622357824806197 1.723396778106689
0.968416315659616 1.733266850944535 1.172718167304993
1.598324817761514 -1.336027124885543 -4.793749809265137
-1.615452128306296 -0.211273321870788 2.997401237487793
0.791732174500559 1.195278903480546 -4.793749809265137
-0.331964063301947 1.733266850944535 4.131298542022705
-1.371606903925803 0.916188975807206 -4.793750286102295
-1.615452247515585 -1.221457460884078 -3.098355054855347
0.925579232319925 0.658442517753617 -4.793749809265137
-1.615452128306296 -1.358141282562240 -2.516033649444580
0.880626958951090 -1.222352484230026 4.793749809265137
1.668953222378824 1.730840703483598 3.367529630661011
-1.615452128306296 -1.226899126533492 -1.569722294807434
0.210988787159059 -1.622357824806197 -3.621709346771240
-1.615452128306296 -1.538394907478317 -4.576267719268799
0.563948315724466 1.733266970153825 -1.249563336372375
-0.848334747210409 1.733266850944535 2.709379196166992
-1.303032594576742 -1.622357944015487 2.557707071304321
-0.721938448801901 0.265031298633591 4.793749809265137
1.740172905072305 0.812287351127641 -0.552651226520538
-1.615452247515585 -0.411688158277496 3.176805496215820
1.040334683999155 0.160507721837537 4.793749809265137
1.740172905072305 1.401390453811661 2.066775321960449
1.740172785863016 0.417954435583131 -2.602872133255005
1.740172785863016 0.080939143907205 -3.243831396102905
0.345616561516855 -1.431229928497298 -4.793749809265137
-1.615452009097006 0.659832080837266 -0.582050025463104
1.740172785863016 1.496357699867265 -4.212487220764160
-0.768183546915915 1.733266850944535 -2.115861177444458
-1.615452128306296 -0.473389962676986 1.134347796440125
1.740172785863016 0.134822381671445 4.328394412994385
-0.972559767619040 -0.086675176385864 4.793749809265137
-1.209215479746725 -1.434641579154952 4.793749809265137
-1.615452009097006 -0.698828557495101 -0.188589468598366
-1.615452128306296 -0.395794430736526 1.420077443122864
1.711177510365579 1.688616534706132 -2.698988199234009
1.660641473874185 0.732826491828934 4.793749809265137
0.676409584626291 -1.592416742805465 -4.668879508972168
-0.753938394442465 1.733266850944535 2.015948772430420
-1.147515254870322 1.733266970153825 -0.603486716747284
-1.615452128306296 -0.010740475718005 4.332410335540771
1.740172785863016 -1.540741184715255 0.752217710018158
-1.615452128306296 0.497115662332551 3.917471408843994
1.740172905072305 0.677846929069535 1.086899518966675
-1.434020238772299 -1.622357944015487 1.792026042938232
0.626970392808054 -1.622357944015487 -3.912679433822632
0.306499120935533 -1.622357944015487 -1.546804189682007
-1.615452128306296 -0.833006957534774 3.557219982147217
-0.156791928068068 -1.622358063224776 -1.163803339004517
1.740172785863016 -0.760468939308151 -0.771980583667755
-0.507947104826834 -1.622357944015487 -0.658863663673401
-0.360979455366995 1.733266970153825 -2.687851428985596
1.740172785863016 0.892029544349686 3.345694065093994
-0.750157552615073 1.733266970153825 -2.773139953613281
1.740172666653726 -0.993608811859115 3.299911975860596
0.873378497704599 -1.622357944015487 2.756655931472778
-0.402039903059866 -1.622358063224776 -2.598007202148438
1.740172785863016 -1.207801559928878 3.036370277404785
-1.615452009097006 -1.027064541343673 -4.330113887786865
0.814164442166422 1.733266970153825 -4.542376518249512
1.435188693150613 -1.622357824806197 3.614203453063965
1.046987754448984 1.733266970153825 -1.845598101615906
-0.351785409108069 0.004304492857234 -4.793749809265137
0.344630462273691 -1.314058283332809 4.793749809265137
1.740172785863016 1.498744269844071 -3.211102008819580
0.123087388619516 1.733266970153825 2.722173929214478
1.261946601018045 0.264581700798051 -4.793749809265137
-0.660872894183066 -1.105893591407760 -4.793749809265137
-1.220834213152792 -1.622357944015487 3.530562400817871
-0.670653539553549 -1.622357944015487 4.409650802612305
1.740172785863016 -0.107815111044868 2.085281610488892
-1.319802480593588 0.059140092937202 -4.793749809265137
-1.520136552706625 -1.622357944015487 -0.973407864570618
0.818492693051431 -1.622357944015487 -2.430720329284668
0.285358634933565 1.044681867595689 4.793749809265137
-0.959653454676535 1.733266970153825 0.477064490318298
-1.615452128306296 0.066533903602437 3.419294595718384
1.740172785863016 -1.295490840438827 0.359341323375702
1.706122202023599 -1.582762697700484 -2.366399526596069
-1.513677793398764 1.733266970153825 2.060870409011841
1.740172785863016 -0.629839697841628 4.546495437622070
1.740172905072305 0.977790912624375 -2.756539344787598
-1.615452128306296 1.415438314910905 2.829648733139038
0.552006048306558 -1.622357824806197 -0.933345258235931
-0.492996352568533 -1.622358063224776 -3.552008390426636
1.740172905072305 0.258141165610329 -2.036059856414795
0.587977213009927 -0.675012269977554 4.793749809265137
0.132774760171507 -1.622358063224776 -2.253128051757812
1.740172785863016 -1.359504679206832 3.708066940307617
-0.253673809424307 1.595434447761552 -4.793749809265137
-1.014474349871542 -1.622357944015487 -0.670368969440460
0.908743244752023 -1.622357944015487 -0.394832253456116
1.740172785863016 1.314602872367875 3.966751098632812
1.574021023854349 -1.622357824806197 2.046215534210205
0.012082194134329 1.733266970153825 -3.566413402557373
1.380919498547647 -1.622357944015487 -2.248752593994141
1.740172666653726 -0.696512201789840 -2.668056249618530
1.740172905072305 -0.872116902832015 -2.930677413940430
-0.078071149841215 -1.622357944015487 -0.812735438346863
1.740172666653726 -1.339159468177779 -0.653170168399811
1.740172785863016 0.284581577416436 -0.584152996540070
1.740172785863016 -0.120133707288726 -2.131303787231445
-0.762412148371603 -1.622357944015487 -3.029700994491577
-1.002232509508993 1.629084965225236 4.793749809265137
1.602354330166910 1.733266970153825 -4.116852283477783
1.740172666653726 -1.405856231216415 -4.511741638183594
1.533561271771524 0.061281127400623 -4.793749809265137
-1.615452128306296 1.214409729476945 -4.057073593139648
-1.311342197314169 1.432093640800492 4.793749809265137
-1.615452128306296 1.099488755699174 3.864077329635620
-1.591442304507162 0.305484553810136 4.651932716369629
-0.973758774653342 -1.622357824806197 1.592988371849060
1.662554306134317 1.733266970153825 -0.908782243728638
0.663766366585825 1.733266970153825 2.460584163665771
1.222060364827249 -1.622357944015487 1.551948547363281
1.740172905072305 -0.168070742849334 -3.462281227111816
-1.525391894236471 1.733266970153825 1.595192193984985
1.740172785863016 0.554685017105119 1.735110521316528
1.740172785863016 -1.241855839256271 3.380408287048340
0.240829778060053 -1.622357824806197 -3.122796058654785
0.418730539425943 -1.622357944015487 -4.580977439880371
0.883582157239053 -1.622357824806197 -3.522440910339355
0.216374290331934 0.976689836021439 -4.793749809265137
-0.795691686526205 -1.622358063224776 1.826127529144287
1.651598495587442 -1.622357944015487 2.343610048294067
1.740172785863016 -1.374398568634017 -3.862004995346069
-1.615452128306296 -0.649121681217178 -1.090502023696899
1.626728695973489 -0.567436674598678 4.793749809265137
1.740172905072305 -1.015053967002853 -2.676339149475098
0.164303620502088 0.683139821525590 -4.793750286102295
-1.508619743243124 -1.622357944015487 1.199164986610413
-1.378061610117819 -1.529360750679000 -4.793750286102295
-1.615452128306296 -1.381855586532577 2.587760448455811
0.134524648233984 -1.622358063224776 0.200975537300110
-1.603594976321127 -1.560569265846236 0.445217847824097
1.740172905072305 0.858951291080491 -3.843886375427246
0.300326255306337 -1.622357944015487 -4.350271701812744
-1.615452128306296 -0.265180120233520 -0.500173330307007
0.767216188057993 -1.622357824806197 2.208779573440552
1.740172666653726 1.640147229667680 1.818667531013489
0.943040770634744 1.221445461746232 4.793750286102295
0.800780338391397 -0.750554898742660 -4.793749809265137
-1.615452009097006 -1.493035415176376 -3.902538776397705
-1.615452128306296 0.774183234210984 -4.526683807373047
-0.866543489352133 -1.622357824806197 -4.075220108032227
-0.094515713706877 -1.622358063224776 -0.515177071094513
0.389889997586343 -1.622357824806197 0.291868090629578
1.673107666119669 1.726686259742753 -3.038011550903320
1.709335130795572 -1.579549888137801 3.179708242416382
-1.315977769747641 -1.035433152679427 -4.793749809265137
-0.585206764593985 1.635145565505997 -4.793749809265137
-1.615452128306296 -1.223206857208236 -0.611726105213165
-1.615452009097006 -0.127899209026321 -0.830377876758575
0.204321545704935 1.733266850944535 -0.771037817001343
-1.615452009097006 -0.958974102500900 -1.183508515357971
-1.539072590723898 1.733266970153825 0.676503598690033
-1.430312829867270 1.733266970153825 0.252143174409866
0.540184778317545 1.727136274810807 -4.600850105285645
1.740172785863016 -0.310972074035629 -1.177932620048523
-1.283134895220663 -1.622357944015487 4.283722877502441
-1.615452247515585 0.242490192886369 2.765182971954346
-1.582743125811484 -1.581421116355880 0.036444686353207
0.603668672188852 1.733267089363114 4.568471431732178
-1.615452128306296 -0.823512772087081 1.743019580841064
-0.667237835780051 -1.622357944015487 3.863324165344238
0.469441604956720 0.018656989570634 4.793749809265137
0.312341270193193 1.733266970153825 -1.520387053489685
-1.615452128306296 0.239945819612519 2.449365854263306
1.740172785863016 0.478215536113755 -2.880605697631836
0.207922873243425 1.733266970153825 -1.046844482421875
-0.955627995386984 1.733266970153825 1.077530622482300
1.740172785863016 -0.708693841461166 1.558603763580322
-0.337300586357977 1.733266970153825 -1.022452116012573
-1.274606901064780 1.733266850944535 4.069993972778320
1.740172905072305 -1.318338850501998 -3.149096488952637
-0.697703200236227 -1.622357944015487 2.994396209716797
0.367006284340952 -1.622357944015487 -0.490508496761322
1.740172785863016 1.180815001960770 -2.515115261077881
-0.612462538138296 -1.622358063224776 2.513415098190308
1.386035484418009 -1.622357944015487 -2.511446475982666
1.740172905072305 0.302684446807877 4.090097904205322
1.526767057522867 1.733267089363114 -3.839132785797119
-1.239844280138876 -1.622357944015487 0.477923512458801
0.049554358392689 -1.622357944015487 -3.325828790664673
-1.615452009097006 1.384280821319596 0.419440507888794
-1.545644837275412 1.729428550239579 1.010707855224609
1.420074981793497 1.733266970153825 -3.391356706619263
0.716258925541971 1.733266850944535 -2.383048295974731
1.740172785863016 -0.445176819328292 2.688519001007080
-1.615452128306296 0.774216672416703 -4.181299209594727
1.129201692685220 -1.622357944015487 0.217324808239937
-0.856198268786337 1.673757931228654 -4.753359317779541
0.186452415927980 1.733266970153825 1.220297813415527
1.688944977864359 -1.599939802650436 -3.063843250274658
-1.295060711756613 -1.622357944015487 -1.296147823333740
1.740172785863016 -0.148891011241897 0.647576391696930
0.783547860726450 1.733266970153825 4.362087726593018
-1.615452009097006 0.417091807361619 0.091583177447319
0.255884242400263 -1.622357944015487 3.638288497924805
1.740172666653726 -0.867344120506271 4.404844284057617
1.740172785863016 -1.245549658302291 0.848157227039337
1.351837915524576 0.877959808345811 4.793749809265137
0.929974776848886 -1.622357824806197 1.495288372039795
0.623982888802622 -1.622357944015487 -1.338972091674805
-1.615452128306296 0.532082101341264 -4.336639404296875
1.348825377568338 -1.519660094741805 4.793749809265137
-0.255953478470709 -1.529092887405380 4.793749809265137
-1.546977835551169 -1.617186406616195 4.431012153625488
1.740172905072305 0.794119140144364 -2.333503007888794
1.740172785863016 0.708992740150468 -1.223356246948242
0.449412685975168 0.385617038246171 -4.793749809265137
-1.314804750338461 1.733266970153825 -0.005192185286433
-0.193747478381064 -1.622358063224776 3.146775007247925
-0.111660259619620 1.733266970153825 4.285971641540527
-1.446254330531027 -1.548544147972091 4.793749809265137
1.740172666653726 0.240344142552392 -3.748978853225708
-0.440381008044150 0.859925469394700 -4.793749809265137
0.599801344021890 -1.622357824806197 2.997381448745728
-1.615452128306296 0.856031855579392 0.374059021472931
-0.483598428622153 1.733266970153825 -2.156403303146362
0.554450166567896 -1.622357944015487 -0.672352552413940
-1.615452128306296 -1.317881325248702 0.562299251556396
-1.615452128306296 0.961935957904832 -2.419852256774902
1.740172785863016 1.254180451866166 3.345429658889771
1.149237913235758 1.733266970153825 3.868307590484619
0.326487076624963 -1.622357944015487 3.039503574371338
1.699489754780863 -0.888705471519454 4.699570655822754
-1.484536724940207 1.733266970153825 3.882874488830566
-1.615452128306296 1.617074867721574 -0.855295956134796
1.415150922879312 1.733267089363114 -0.766540527343750
0.346575063809488 1.733267089363114 -1.803732633590698
-1.318152862444784 -1.622357944015487 -4.393889427185059
-0.024390364840891 1.722681185241715 4.613578796386719
-1.615452128306296 -0.002696448925956 -3.070622920989990
-1.615452128306296 -0.182829225424751 -2.204103946685791
-1.615452128306296 -0.454131999973281 -0.847835183143616
-0.434135216132071 -1.622357944015487 0.810016930103302
1.740172666653726 -1.250030616287215 -3.425204038619995
-0.991553145304587 -1.622357944015487 2.506357192993164
0.778758031472299 1.733266970153825 2.207690715789795
0.048499187610779 0.728118559356705 4.793749809265137
1.527927679165933 0.403696259494797 -4.793750286102295
-1.615452128306296 -1.001264790061935 1.487198948860168
0.287891921743486 -1.622357824806197 4.378441810607910
1.740172666653726 -0.468600491050704 2.947526216506958
-1.615452247515585 -0.750200966361984 -4.214194297790527
1.683303279027078 -1.605581739906295 -2.624287128448486
0.518531036719415 1.733266970153825 1.953909397125244
-0.379292565241721 -1.465227225784286 -4.793749809265137
-1.615452247515585 1.175725838180558 3.608688592910767
1.436507982358072 -0.745405832294448 4.793749809265137
-1.615452128306296 0.026286195974724 -0.572263479232788
-0.166180285468962 -1.622357944015487 -3.577573776245117
-1.143465953722861 -1.622357824806197 2.234573841094971
-1.330167251482870 0.730432709690110 4.793749809265137
1.740172785863016 -1.382710436347945 -1.764155149459839
0.660936874493692 -1.404127100471481 4.793749809265137
-0.815429705038931 1.733266850944535 1.740419864654541
-1.615452128306296 0.051554826797844 2.192088842391968
-0.429042058840658 -1.622357824806197 1.873761653900146
-0.332932519570257 1.733266850944535 0.350993007421494
-1.033642965212729 -1.622357824806197 4.015235900878906
-1.615452247515585 0.379232635732667 -4.553758144378662
-1.615452128306296 -1.255681494239791 -1.888897418975830
-0.573471802130606 1.663482448097245 4.782717227935791
-1.615452128306296 0.629379889007584 3.370414257049561
0.576419633969400 -1.622357944015487 -4.199521064758301
1.194826168164346 1.733266970153825 2.133636236190796
-0.965083437815573 -0.449956277374252 4.793749809265137
1.740172785863016 -1.183020094398483 -0.384112298488617
-1.615452247515585 -0.359101006750091 -3.902705430984497
-1.414250689402487 -1.622357944015487 2.286936044692993
-0.697976070300009 1.733266970153825 0.372261941432953
1.621951741322611 1.733266970153825 3.626307487487793
-1.615452128306296 0.682850858207719 -2.458571910858154
-0.425255196944144 -1.622358063224776 2.323649406433105
1.391752881154154 1.733267089363114 -3.130542278289795
-1.615452128306296 -0.957962850097640 -4.056847572326660
1.740172785863016 -0.497208813194259 -1.417632222175598
-0.367820816889670 -1.622357944015487 -1.932438015937805
0.812360805615518 1.733266850944535 -4.034615993499756
-1.327559071436789 -1.622357944015487 0.732463836669922
-1.615452128306296 0.357436498638169 3.357005357742310
1.740172785863016 0.345622053380982 3.306130170822144
1.709896606549356 0.216242214675919 -4.669836521148682
-0.582944887534048 0.530350467201249 -4.793749809265137
-0.093771221891310 -1.622357944015487 1.403340458869934
1.740172905072305 0.165884708996789 1.497780323028564
-1.615452009097006 -1.335781672958358 -4.344987869262695
1.740172666653726 0.489118328329102 2.295976161956787
-0.456490534201529 1.733266970153825 2.737237215042114
1.740172785863016 0.445324858661668 2.601184844970703
-1.615452128306296 -0.270211258892043 4.235430717468262
1.740172905072305 0.872588535781876 0.483615547418594
1.740172785863016 -0.107896948222144 1.282628774642944
-1.540965157404806 -1.622357944015487 4.131318092346191
1.740172785863016 1.394563576217667 1.234068989753723
-0.839924054995444 1.728358527656571 4.597357749938965
1.740172905072305 0.183577543135659 2.048928737640381
0.424659622058008 1.733266970153825 -4.035419464111328
0.013147466972206 -1.622357944015487 -1.509561538696289
-1.615452128306296 -1.181755999092086 1.836983084678650
-1.615452128306296 0.030873129155413 -3.419707536697388
1.740172666653726 1.145934721466080 -3.602885007858276
-0.505774575129416 1.733266970153825 1.096359729766846
-1.054974037066366 1.733266970153825 -2.350362539291382
-0.832910197630789 -1.622357824806197 -1.323271036148071
1.102837008580301 -1.622357944015487 -4.388863086700439
1.100572151288126 -1.622357824806197 -0.930844783782959
-1.560407834902670 1.714665433403031 2.405123710632324
1.740172785863016 0.738961895938889 -2.882962226867676
1.700841588124368 1.698952337738053 0.100850902497768
-1.615452128306296 -1.379218319419845 4.286361217498779
1.740172785863016 1.527297159667985 -1.748581290245056
1.740172666653726 -0.124958181742652 -0.672045290470123
1.740172785863016 -0.711030522350295 2.842403173446655
1.740172785863016 -0.351253846649154 4.486375331878662
-1.615452009097006 1.354583522315995 -1.854171276092529
0.722001356228922 0.878256579872147 -4.793749809265137
-1.615452128306296 -0.507832625869735 -2.943575382232666
-0.825686531916525 1.733266970153825 -2.490107297897339
-0.731886702433493 1.733266970153825 -1.857729911804199
1.740172666653726 1.492229720588700 3.463034391403198
1.740172785863016 0.723416587348954 -3.525990962982178
1.449222010716531 -1.622357944015487 -0.389691591262817
-1.615452247515585 0.832992276187913 -2.698354005813599
1.740172785863016 -0.110827440384849 -4.507989883422852
1.740172785863016 0.298434158798234 -0.272761821746826
0.112296783521507 1.653730055328385 -4.793749809265137
-1.615452009097006 0.125801978643910 1.631360173225403
-1.615452009097006 -0.754750946525558 2.567024230957031
0.682213944539163 0.264780363079087 4.793749809265137
1.450764221295450 -1.622357944015487 -2.776087522506714
1.305300516232584 1.733266850944535 -0.072753801941872
-1.615452247515585 -0.070429826144202 0.098106712102890
-1.335223513499167 0.485447576280610 -4.793749809265137
-1.615452009097006 1.648522635932938 -2.140204906463623
0.205160764202211 1.733266970153825 -4.181714057922363
-1.615452128306296 0.047096475038604 2.967319250106812
1.740172905072305 -0.443406859401687 -3.793076276779175
-1.615452128306296 -0.960128286842330 -1.612222433090210
-1.615452128306296 -0.775625446800216 -0.859674394130707
-1.615452247515585 1.133783718582169 0.221634075045586
-0.552689450636771 1.733266970153825 -2.483146190643311
1.740172785863016 -0.114014768961890 -2.404809236526489
1.267579597577188 1.630715986724870 4.793749809265137
-1.615452128306296 -0.513370791439040 0.460765212774277
-1.615452128306296 -0.709879258636459 2.023938655853271
1.740172905072305 0.742078324790971 -0.215189903974533
0.589840096577738 1.733267089363114 -1.928708076477051
0.997679871663187 -1.622357944015487 2.528840541839600
-1.356404262438681 1.733266850944535 -2.396489620208740
-1.089373546496298 0.842058023448960 -4.793749809265137
0.511146229848001 -1.622357944015487 1.517766714096069
1.128185910328958 1.654007216926591 -4.793749809265137
-0.310644256726172 1.661458512779252 4.788499832153320
1.740172785863016 -0.942955831054672 2.403437376022339
-1.600473481074240 -1.563690761093124 -0.468090236186981
1.448379439457987 -1.622357944015487 1.350730419158936
1.437527937039468 1.733266850944535 -2.578595161437988
-0.912442761317160 -1.622357824806197 1.038714408874512
-1.615452128306296 -1.155185798171981 2.108799695968628
1.169715684994791 -1.622357824806197 3.946846961975098
-0.086302387371924 -0.289722213510497 -4.793749809265137
-0.409158903017905 -1.622357944015487 1.609134674072266
-0.845675903216269 0.993865331645982 4.793749809265137
-1.615452128306296 0.417146107193009 3.629737615585327
1.693555277928446 -1.595329502586349 -3.615347862243652
1.065029186352823 1.733266970153825 -3.554006099700928
-1.615452128306296 0.799175402160661 1.174509763717651
1.740172785863016 -0.537006953720077 -2.931973934173584
-1.376274305239584 1.733266850944535 -3.243499994277954
1.136350792988870 1.733267089363114 3.037146091461182
-1.615452009097006 0.285909583803193 -0.596077859401703
1.740172905072305 0.048636082105265 3.116734027862549
0.562387985333536 1.733266970153825 3.713803768157959
-1.584110337153342 0.017859810974375 4.672881603240967
-1.615452128306296 0.414172550674454 -3.035001277923584
0.438968700512979 1.733267089363114 -0.285322368144989
-1.615452128306296 -0.546562412742599 4.086813449859619
1.740172785863016 1.658935925003068 1.484976291656494
1.740172785863016 0.481453320022599 3.619179248809814
1.150337499722574 1.733266850944535 4.156483650207520
1.740172785863016 0.567892333503739 -3.737274408340454
-1.615452009097006 -1.250297883514388 -1.279237508773804
-1.087873893633749 1.733266970153825 3.268899917602539
1.740172666653726 -0.046839335922225 -0.963639080524445
1.740172785863016 -0.412585148576720 1.995693922042847
1.492977542027567 1.733266970153825 2.055977344512939
-0.987582999125387 1.409784933563248 -4.793749809265137
0.698545319184396 -1.622357944015487 -0.237559020519257
-1.615452128306296 -1.135498264793380 1.059915542602539
0.546124351367090 1.733267089363114 4.040640354156494
-0.640157121077444 1.733266970153825 -4.104661464691162
0.649535101994608 1.733266850944535 2.800696849822998
0.983687204465006 -1.622357944015487 -3.832426548004150
-0.309350806132223 -0.943524280551894 -4.793749809265137
-1.191570001498129 -1.622357944015487 1.050047159194946
0.289130014523599 1.733266850944535 -3.514511823654175
-0.854403513327505 1.733266970153825 -3.498302936553955
1.683699411496256 1.716094752784745 -2.420357465744019
1.740172905072305 1.395199557777421 0.139019787311554
-1.615452009097006 1.317677399154679 -0.589399218559265
-1.615452009097006 0.978889128204362 3.436639308929443
1.740172785863016 1.018098196025864 -3.368123292922974
-0.217861789122488 1.733266970153825 1.301910996437073
-1.615452247515585 1.500085731979386 0.840154409408569
1.050922257050607 1.733266970153825 -4.156541824340820
1.740172785863016 -0.681403735641464 3.241054058074951
-1.615452128306296 -0.356192806724532 -2.408554792404175
-1.094400959864523 -1.622357824806197 1.854225397109985
1.217777532681558 0.607692917819993 4.793749809265137
1.740172785863016 -0.967615822319015 3.682841777801514
1.460189861401651 1.733266970153825 3.964876651763916
1.289420169934366 -1.622357944015487 -3.007278442382812
-0.502158003703024 -1.622357944015487 -2.842705011367798
0.156895955249403 0.025074336688892 4.793749809265137
1.740172785863016 -0.695104876522048 0.412497937679291
1.730561417683695 -1.190330246452316 4.610794067382812
-1.592607098475363 1.682466289039628 -0.392559587955475
-0.080075430527594 -1.622357944015487 -3.905194282531738
-1.511598306551840 -1.622357824806197 3.689385175704956
0.612194818600748 1.733266970153825 -1.669922232627869
1.740172666653726 -0.195102283720000 0.367750525474548
1.351415437802408 1.733266970153825 -1.040522336959839
0.777587515458200 1.733267089363114 -3.039215564727783
-1.123982268229391 -1.622358063224776 -1.513323783874512
-1.039699750796225 -1.622357944015487 3.740184783935547
0.773675722226236 1.733267089363114 -0.005108075216413
-1.615452128306296 -0.932156780723556 -2.632606506347656
-1.615452128306296 -1.105849841598495 -3.336548805236816
1.740172785863016 0.535744151111619 4.577181816101074
-0.806528049364950 -1.622357944015487 -3.711388587951660
-0.692498045817282 -0.255767235521301 4.793749809265137
0.969203394993875 1.733266970153825 3.365017414093018
-1.615452247515585 -0.018096948031409 -1.510220170021057
0.592971009358499 -0.221041092638000 4.793750286102295
0.279589277848337 -0.495648780826553 -4.793749809265137
0.137541701242063 -1.622357944015487 3.223585128784180
-1.615452128306296 0.101786548282878 -0.135918870568275
-0.631369131461050 1.733266970153825 4.165072441101074
0.347584677085016 -1.622357944015487 -3.902907609939575
1.551971716031168 -1.289596060279830 4.793749809265137
-1.286974268809225 -1.622357824806197 -2.207312345504761
-1.615452128306296 0.359935184951798 -0.179735139012337
-1.615452128306296 0.279275691147820 0.675072312355042
1.622781914815042 1.329529544349686 -4.793749809265137
1.740172905072305 -0.424544850353225 -1.739181041717529
-1.615452247515585 1.513655921455399 0.084880635142326
-0.514954584494498 1.733266850944535 3.389781951904297
-0.070160197869208 -0.588734069828017 -4.793749809265137
-1.615452009097006 0.688448091979996 -1.486638903617859
0.908998412236307 1.733266970153825 2.690277338027954
1.740172666653726 -0.484207132820113 -0.813398361206055
1.256378096684549 -1.622357944015487 0.903671383857727
1.740172785863016 0.164011484023110 3.561772584915161
1.740172905072305 1.431516667839066 1.626177072525024
-1.268442231074240 1.733266970153825 -3.989963531494141
1.740172666653726 0.190316190954224 -0.032138425856829
1.410482448681925 1.733266970153825 2.927052259445190
-0.913318115130331 -0.345166305068954 -4.793749809265137
-1.534585195437338 1.728806158538834 4.596078395843506
-1.224514799967673 1.733266970153825 -0.304465830326080
1.740172905072305 -0.909106770519241 -1.800788640975952
-1.615452128306296 -0.467876413825973 -2.000598669052124
-1.222239333048727 0.479120006795899 4.793749809265137
1.740172785863016 -0.407843628887161 4.142984390258789
0.393540066823099 1.733266970153825 4.351320266723633
0.701525491818521 1.097644826408402 4.793749809265137
-1.615452009097006 -0.122176805500015 1.503539323806763
-1.615452009097006 -0.858168104652389 -3.487174987792969
0.880091172799204 -1.622357824806197 -0.692460536956787
1.293858093365762 -1.622358063224776 -0.142194822430611
-0.436946618214514 1.733267089363114 -1.689266443252563
-1.615452009097006 0.503219863410966 -3.352356910705566
1.740172785863016 -0.726683119300826 2.222213745117188
1.740172666653726 -0.189529636863693 -3.991856575012207
-1.615452009097006 -1.400961497787460 2.324481487274170
0.778802913769815 -0.103288033966048 -4.793749809265137
0.231698316678140 -1.622357944015487 -2.548986911773682
1.740172785863016 1.294143935676591 -0.450421750545502
0.327746671780679 -1.124900678161605 -4.793749809265137
-1.615452128306296 -1.040808418754562 0.442849993705750
1.740172666653726 -1.254039982322677 3.987974643707275
0.093545639112327 1.509128233428971 4.793749809265137
-1.615452128306296 -0.633319893840774 0.691198110580444
1.740172905072305 0.900970002647416 4.281173229217529
0.849862021550272 0.714962383743302 4.793749809265137
1.740172785863016 -0.940173128608688 0.324221193790436
-0.189245360747244 -1.622357824806197 2.185656309127808
-0.437760609045889 1.733266970153825 -4.328335762023926
-0.079496699229147 1.733266970153825 -2.498324155807495
-1.615452247515585 -1.326921561721786 -2.809719562530518
-0.790858941927817 1.733266850944535 -1.285202383995056
0.230297696932886 1.733266850944535 0.668015837669373
-1.533525186434653 1.733266850944535 -4.007887840270996
1.740172666653726 -1.412960508827193 2.600866794586182
1.740172666653726 -0.686524609092696 3.525527238845825
-1.615452247515585 1.299551149841325 -0.865961253643036
-0.222345220700171 1.733267089363114 3.514214038848877
1.740172905072305 -1.384396770957931 -2.790754318237305
-1.615452128306296 -1.221730926994308 -4.080961227416992
-0.987667280093100 -1.622358063224776 1.313602924346924
1.351272625073526 1.733267089363114 1.065603494644165
1.188426536664102 0.593494674201981 -4.793749809265137
-0.197445052519705 -1.622357944015487 0.658005356788635
1.568468374356363 -0.443563023570998 -4.793749809265137
-1.298856812373068 1.733266970153825 0.929161727428436
-1.585409122362997 1.689664145942704 -1.863889694213867
0.778246921643350 -1.622357944015487 3.947134971618652
1.440932077511881 -1.622357824806197 -0.739620149135590
-1.615452128306296 0.025747593503372 -2.424014568328857
0.597444993599985 -1.622357824806197 -1.636278390884399
-1.615452128306296 0.149244448181168 3.698313951492310
1.740172785863016 -1.508013704780563 0.068958669900894
0.157683191045854 -1.622357944015487 -1.816535115242004
0.929409665211771 -0.443578997615798 -4.793749809265137
1.740172905072305 0.166617242630498 1.776383876800537
0.178474699303243 -1.622358063224776 2.355964422225952
-0.106947052136328 1.733266970153825 -4.302296638488770
-1.615452128306296 -0.540469387535079 -4.400924205780029
-0.483957844630148 -1.622357944015487 3.183933019638062
1.740172785863016 0.539653709169404 -1.004714250564575
-1.002844887629416 1.733267089363114 0.807101428508759
-1.615452009097006 0.770879408355729 -0.887215375900269
-1.313186841860678 1.733266970153825 -1.410161972045898
0.921085399731729 -1.287603596214278 -4.793749809265137
-0.117837968126204 0.751594683166520 -4.793749809265137
0.308623147353265 -1.622358063224776 2.047160148620605
1.740172666653726 -0.447151759628280 -2.014708757400513
-1.615452128306296 0.935116132732407 2.409051179885864
-1.445570903674033 -1.132810095314010 4.793749809265137
1.740172785863016 0.824713965888993 -4.370982170104980
-1.615452009097006 0.511317839857117 1.691772699356079
1.740172785863016 -0.408615419630035 1.334161996841431
-1.615452128306296 -0.577129701141341 -3.246382713317871
1.740172785863016 -0.162752026680930 1.669027209281921
-0.756526785746481 -1.622357944015487 -2.409532070159912
-0.595360415831473 0.494686564441697 4.793749809265137
-0.261205660954382 -1.622357944015487 -4.172469615936279
1.424543184384439 -1.622357944015487 3.345613002777100
-1.615452128306296 0.086729990329520 0.311931580305099
0.127495777949426 0.411655804153458 -4.793749809265137
-1.615452009097006 -1.093566277984603 4.256479263305664
1.740172785863016 -0.990781167510970 -3.452737092971802
-1.615452128306296 -0.632015267375930 -2.223762750625610
-1.615452009097006 0.361117741104142 3.047144651412964
-1.615452128306296 -1.387688497070297 -1.057886004447937
1.740172785863016 1.342853328224198 3.686631917953491
0.713856023892496 -1.622357824806197 -2.168091297149658
-1.615452128306296 -0.921436646942123 2.330283641815186
-1.615452009097006 -1.336424926284774 3.465017318725586
-0.102517264738943 1.733266970153825 3.750508069992065
-0.179323392763998 1.733266970153825 -0.502767443656921
-0.595750885859396 -1.622357824806197 -2.182425737380981
0.184964929863546 -1.622357944015487 -2.837389469146729
-1.615452009097006 -0.821445921424850 4.401453971862793
-0.160424160614874 -1.622357944015487 2.472174406051636
-0.809515851393606 0.678869446750657 -4.793749332427979
1.740172785863016 -0.705079415801986 -1.611910462379456
-1.615452128306296 1.216057201858536 0.638529658317566
-1.615452247515585 0.590644082065598 2.918408870697021
-1.615452128306296 -1.010105112556442 0.091362982988358
1.595015329465006 -1.601230839256271 -4.643696308135986
0.182693061575029 1.733267089363114 -3.159579038619995
0.857695263966654 -0.436853477720245 4.793749809265137
-1.596248107806113 -1.567916253570541 -4.169982910156250
0.291238856658075 -1.622357944015487 -0.986999630928040
1.740172666653726 1.185939928527848 -0.692057490348816
0.194162708863352 1.733266970153825 -0.453542679548264
0.214580294832323 0.528499713178651 4.793749809265137
-1.615452128306296 -0.362795243028625 3.828169107437134
-0.133951174870398 -1.622357944015487 -1.774921298027039
-1.615452128306296 0.053785217937009 1.913010835647583
0.452284288748834 1.733266970153825 0.486512362957001
-0.769668775454428 0.956555863853471 -4.793749809265137
1.740172785863016 1.317497273918168 -1.448432922363281
-0.572524803534415 1.733267089363114 -1.138926386833191
1.740172666653726 0.319384923215882 -4.134790897369385
-1.615452128306296 -0.292584160331710 -0.048060167580843
1.065363210782144 1.733266970153825 0.895365297794342
-1.228160816088583 1.733266850944535 1.595769762992859
-0.093274625793364 -1.622357944015487 -2.520709514617920
1.008766812428568 1.420783778663651 -4.793749809265137
0.772384924038980 -1.622357944015487 -3.097626686096191
-0.525940376177695 -1.622357944015487 -3.148563623428345
1.740172785863016 1.189962884422318 1.783890366554260
-1.615452128306296 0.223476564522759 -1.733075380325317
-0.014613049879935 0.005457619216220 -4.793749809265137
1.740172785863016 -0.510125676158889 -3.197498798370361
-0.369362073794272 -1.622358063224776 -2.330365657806396
1.094559353932474 -1.622357824806197 3.682069301605225
0.648477238759134 1.733266970153825 0.660327792167664
1.283008498295877 1.733266970153825 0.436148464679718
-0.276645111695196 1.733266850944535 -3.472215175628662
1.740172785863016 -0.437481233839019 -4.264806747436523
0.488050741299722 -0.269962051872237 -4.793749809265137
1.677035373791788 -1.611849764350875 -1.919983148574829
1.740172905072305 1.421460529800431 -3.503905773162842
-0.795974450961020 -1.622357944015487 -0.323081284761429
-1.057468491450217 1.733266970153825 -1.578567385673523
-0.142541753903296 -1.622358063224776 4.493032932281494
-1.615452128306296 1.393457194801347 3.285000324249268
1.740172905072305 -0.363634267810806 -2.715934514999390
0.781648558720682 0.002684796240107 4.793749809265137
-1.286706167117026 -0.227394083503707 -4.793749809265137
1.740172785863016 0.658832808967606 -0.765229105949402
1.004818541154001 1.733266970153825 -0.133312016725540
1.072523874386881 -1.622358063224776 3.399049520492554
1.740172785863016 -1.548015931610091 1.042471051216125
