# This PCD file was generated using the MATLAB® pcwrite function
# from Computer Vision Toolbox®.
# .PCD v.7 - Point Cloud Data file format
VERSION .7
FIELDS x y z
SIZE 8 8 8
TYPE F F F
COUNT 1 1 1
WIDTH 860
HEIGHT 1
VIEWPOINT 0 0 0 1 0 0 0
POINTS 860
DATA ascii
-0.581772714129340 -1.610810651498360 -4.089734554290771
1.429375261792291 -1.610810889916939 2.488125562667847
1.748401374348748 1.477683649343925 2.364245653152466
-0.507843285075080 1.744814143461662 -2.947082757949829
-1.108598618975532 -1.610810770707650 0.219464525580406
1.736035437115777 -1.549530877786202 3.537933111190796
1.177478165158379 -1.610810770707650 -0.487341642379761
-1.049051552286994 -1.263353719430489 -4.793749809265137
1.420419187077630 -1.610810889916939 -1.017751812934875
1.689959854611504 -1.595606460290474 -0.169773042201996
1.729673952588189 1.689895735067802 -3.440454483032227
0.881684512623895 1.744814143461662 3.719432592391968
1.710284084805596 -1.575282230096382 -1.566217660903931
-1.607223539820563 1.467877016348320 1.575869798660278
1.647002071866143 -0.248243971782250 4.793749809265137
-1.607223659029853 -0.197687639909310 0.475627273321152
-0.372032313815009 -1.610810770707650 0.291546285152435
1.748401374348748 -0.169888793545288 2.880262851715088
1.063572139271844 -1.610810889916939 -1.805340647697449
0.571597070225823 -1.610810889916939 1.034899950027466
-0.412564634552848 -1.610810889916939 4.578796386718750
1.748401374348748 0.247447893900352 -0.957373142242432
1.748401493558038 0.142235786599594 3.842055797576904
1.748401374348748 -1.262679352479500 -4.164200782775879
-1.607223659029853 -1.504206790643257 -3.054668426513672
0.480907172688592 -1.610810651498360 2.363456249237061
1.748401374348748 -1.146924390512032 -2.937275409698486
1.748401374348748 0.951590106768089 0.992638945579529
-1.607223539820563 0.790333018583732 3.609978675842285
1.748401255139459 -0.435409202294869 -0.253525555133820
-0.338866203299415 -1.610810889916939 -0.879137396812439
-0.719066291323554 1.744814024252372 2.295392990112305
-1.267606883517158 1.694758758825737 4.726348876953125
-1.607223420611274 0.837686226648765 1.943001031875610
-0.346912830344092 -1.610810770707650 -3.820822715759277
0.797053725251305 -1.610810770707650 1.213834285736084
-1.607223539820563 0.047557488960701 -3.712724685668945
1.748401493558038 0.552798495573478 0.467795103788376
-0.773274629584205 -1.610810770707650 -1.606885313987732
-1.386941104403388 -1.610810651498360 -3.356002092361450
-0.422688245049369 0.859540269655662 4.793749809265137
1.421293587216485 1.744814143461662 -1.940396547317505
1.748401255139459 0.019364130628782 -1.804939866065979
-1.033311753741157 1.744814024252372 4.211128711700439
-1.607223539820563 -0.705307020860237 0.958655714988708
1.748401255139459 0.812454626841026 2.998006820678711
-1.607223420611274 0.016301517320352 0.665992438793182
-1.607223539820563 0.677860126776176 2.153398990631104
1.748401493558038 1.581951842588859 3.869089603424072
-0.005186795464408 -1.610276832299752 -4.584858894348145
1.242609948643792 -0.843826069551033 -4.793749809265137
0.202772752174485 1.744814262670952 4.063986301422119
-1.607223539820563 -0.259329452233834 -3.285873174667358
1.748401374348748 1.059394882006126 0.015054121613503
0.538721115120995 1.744814143461662 -0.555689990520477
-1.607223420611274 -0.984648360925240 -2.114775419235229
0.999663025864709 -0.154410018640084 4.793749809265137
1.748401255139459 1.367745385450798 -1.181356072425842
-1.607223659029853 -1.425738110261483 1.733193993568420
1.748401374348748 0.222387910766082 -2.355483055114746
-1.607223420611274 0.444116637987571 -0.847255349159241
1.477017135151971 -1.610810889916939 -1.695238113403320
-1.534384518137824 0.235140622539001 -4.791444301605225
-1.254928498736274 1.744814262670952 2.452080011367798
-1.599648385516059 1.678743586821037 3.237624406814575
0.113108680376161 -1.610810770707650 -0.308617115020752
0.038055133798468 1.744814143461662 2.317465066909790
-0.621503262987983 1.744814143461662 -4.557043075561523
0.566377372273553 -1.610810889916939 3.735984802246094
0.531149239071954 -0.650600089746041 -4.793749332427979
-0.759927421084296 -1.610810770707650 0.300531119108200
1.748401374348748 -1.275682224946541 1.991040706634521
1.748401255139459 0.907735929769951 -0.894952356815338
1.748401374348748 1.247387633604484 -2.782566070556641
1.748401493558038 0.294233606142479 -1.538716197013855
1.748401374348748 -0.591413750367684 0.052483260631561
1.564023584851373 -1.610810651498360 1.723396778106689
0.976644904145348 1.744814024252372 1.172718167304993
1.606553406247247 -1.324479951577706 -4.793749809265137
-1.607223539820563 -0.199726148562950 2.997401237487793
0.799960762986291 1.206826076788383 -4.793749809265137
-0.323735474816215 1.744814024252372 4.131298542022705
-1.363378315440070 0.927736149115043 -4.793750286102295
-1.607223659029853 -1.209910287576241 -3.098355054855347
0.933807820805657 0.669989691061454 -4.793749809265137
-1.607223539820563 -1.346594109254402 -2.516033649444580
0.888855547436822 -1.210805310922188 4.793749809265137
1.677181810864556 1.742387876791435 3.367529630661011
-1.607223539820563 -1.215351953225655 -1.569722294807434
0.219217375644791 -1.610810651498360 -3.621709346771240
-1.607223539820563 -1.526847734170479 -4.576267719268799
0.572176904210198 1.744814143461662 -1.249563336372375
-0.840106158724677 1.744814024252372 2.709379196166992
-1.294804006091010 -1.610810770707650 2.557707071304321
-0.713709860316169 0.276578471941429 4.793749809265137
1.748401493558038 0.823834524435478 -0.552651226520538
-1.607223659029853 -0.400140984969658 3.176805496215820
1.048563272484887 0.172054895145374 4.793749809265137
1.748401493558038 1.412937627119499 2.066775321960449
1.748401374348748 0.429501608890968 -2.602872133255005
1.748401374348748 0.092486317215043 -3.243831396102905
0.353845150002587 -1.419682755189461 -4.793749809265137
-1.607223420611274 0.671379254145103 -0.582050025463104
1.748401374348748 1.507904873175102 -4.212487220764160
-0.759954958430183 1.744814024252372 -2.115861177444458
-1.607223539820563 -0.461842789369149 1.134347796440125
1.748401374348748 0.146369554979282 4.328394412994385
-0.964331179133308 -0.075128003078026 4.793749809265137
-1.200986891260993 -1.423094405847115 4.793749809265137
-1.607223420611274 -0.687281384187264 -0.188589468598366
-1.607223539820563 -0.384247257428688 1.420077443122864
1.719406098851312 1.700163708013969 -2.698988199234009
1.668870062359918 0.744373665136772 4.793749809265137
0.684638173112023 -1.580869569497628 -4.668879508972168
-0.745709805956733 1.744814024252372 2.015948772430420
-1.139286666384589 1.744814143461662 -0.603486716747284
-1.607223539820563 0.000806697589832 4.332410335540771
1.748401374348748 -1.529194011407418 0.752217710018158
-1.607223539820563 0.508662835640388 3.917471408843994
1.748401493558038 0.689394102377372 1.086899518966675
-1.425791650286567 -1.610810770707650 1.792026042938232
0.635198981293786 -1.610810770707650 -3.912679433822632
0.314727709421265 -1.610810770707650 -1.546804189682007
-1.607223539820563 -0.821459784226937 3.557219982147217
-0.148563339582336 -1.610810889916939 -1.163803339004517
1.748401374348748 -0.748921766000313 -0.771980583667755
-0.499718516341102 -1.610810770707650 -0.658863663673401
-0.352750866881263 1.744814143461662 -2.687851428985596
1.748401374348748 0.903576717657524 3.345694065093994
-0.741928964129340 1.744814143461662 -2.773139953613281
1.748401255139459 -0.982061638551277 3.299911975860596
0.881607086190331 -1.610810770707650 2.756655931472778
-0.393811314574134 -1.610810889916939 -2.598007202148438
1.748401374348748 -1.196254386621041 3.036370277404785
-1.607223420611274 -1.015517368035836 -4.330113887786865
0.822393030652154 1.744814143461662 -4.542376518249512
1.443417281636346 -1.610810651498360 3.614203453063965
1.055216342934716 1.744814143461662 -1.845598101615906
-0.343556820622337 0.015851666165071 -4.793749809265137
0.352859050759423 -1.302511110024971 4.793749809265137
1.748401374348748 1.510291443151909 -3.211102008819580
0.131315977105248 1.744814143461662 2.722173929214478
1.270175189503777 0.276128874105888 -4.793749809265137
-0.652644305697333 -1.094346418099923 -4.793749809265137
-1.212605624667060 -1.610810770707650 3.530562400817871
-0.662424951067817 -1.610810770707650 4.409650802612305
1.748401374348748 -0.096267937737030 2.085281610488892
-1.311573892107856 0.070687266245040 -4.793749809265137
-1.511907964220893 -1.610810770707650 -0.973407864570618
0.826721281537164 -1.610810770707650 -2.430720329284668
0.293587223419297 1.056229040903526 4.793749809265137
-0.951424866190803 1.744814143461662 0.477064490318298
-1.607223539820563 0.078081076910275 3.419294595718384
1.748401374348748 -1.283943667130989 0.359341323375702
1.714350790509332 -1.571215524392647 -2.366399526596069
-1.505449204913032 1.744814143461662 2.060870409011841
1.748401374348748 -0.618292524533791 4.546495437622070
1.748401493558038 0.989338085932213 -2.756539344787598
-1.607223539820563 1.426985488218742 2.829648733139038
0.560234636792291 -1.610810651498360 -0.933345258235931
-0.484767764082801 -1.610810889916939 -3.552008390426636
1.748401493558038 0.269688338918167 -2.036059856414795
0.596205801495660 -0.663465096669716 4.793749809265137
0.141003348657239 -1.610810889916939 -2.253128051757812
1.748401374348748 -1.347957505898995 3.708066940307617
-0.245445220938575 1.606981621069389 -4.793749809265137
-1.006245761385810 -1.610810770707650 -0.670368969440460
0.916971833237756 -1.610810770707650 -0.394832253456116
1.748401374348748 1.326150045675712 3.966751098632812
1.582249612340081 -1.610810651498360 2.046215534210205
0.020310782620061 1.744814143461662 -3.566413402557373
1.389148087033379 -1.610810770707650 -2.248752593994141
1.748401255139459 -0.684965028482003 -2.668056249618530
1.748401493558038 -0.860569729524178 -2.930677413940430
-0.069842561355483 -1.610810770707650 -0.812735438346863
1.748401255139459 -1.327612294869942 -0.653170168399811
1.748401374348748 0.296128750724273 -0.584152996540070
1.748401374348748 -0.108586533980889 -2.131303787231445
-0.754183559885871 -1.610810770707650 -3.029700994491577
-0.994003921023261 1.640632138533073 4.793749809265137
1.610582918652642 1.744814143461662 -4.116852283477783
1.748401255139459 -1.394309057908577 -4.511741638183594
1.541789860257256 0.072828300708460 -4.793749809265137
-1.607223539820563 1.225956902784782 -4.057073593139648
-1.303113608828437 1.443640814108329 4.793749809265137
-1.607223539820563 1.111035929007011 3.864077329635620
-1.583213716021430 0.317031727117973 4.651932716369629
-0.965530186167609 -1.610810651498360 1.592988371849060
1.670782894620049 1.744814143461662 -0.908782243728638
0.671994955071557 1.744814143461662 2.460584163665771
1.230288953312981 -1.610810770707650 1.551948547363281
1.748401493558038 -0.156523569541497 -3.462281227111816
-1.517163305750739 1.744814143461662 1.595192193984985
1.748401374348748 0.566232190412956 1.735110521316528
1.748401374348748 -1.230308665948433 3.380408287048340
0.249058366545785 -1.610810651498360 -3.122796058654785
0.426959127911675 -1.610810770707650 -4.580977439880371
0.891810745724786 -1.610810651498360 -3.522440910339355
0.224602878817666 0.988237009329277 -4.793749809265137
-0.787463098040473 -1.610810889916939 1.826127529144287
1.659827084073174 -1.610810770707650 2.343610048294067
1.748401374348748 -1.362851395326180 -3.862004995346069
-1.607223539820563 -0.637574507909340 -1.090502023696899
1.634957284459222 -0.555889501290840 4.793749809265137
1.748401493558038 -1.003506793695015 -2.676339149475098
0.172532208987821 0.694686994833427 -4.793750286102295
-1.500391154757392 -1.610810770707650 1.199164986610413
-1.369833021632087 -1.517813577371163 -4.793750286102295
-1.607223539820563 -1.370308413224739 2.587760448455811
0.142753236719716 -1.610810889916939 0.200975537300110
-1.595366387835395 -1.549022092538399 0.445217847824097
1.748401493558038 0.870498464388328 -3.843886375427246
0.308554843792069 -1.610810770707650 -4.350271701812744
-1.607223539820563 -0.253632946925682 -0.500173330307007
0.775444776543725 -1.610810651498360 2.208779573440552
1.748401255139459 1.651694402975517 1.818667531013489
0.951269359120477 1.232992635054069 4.793750286102295
0.809008926877129 -0.739007725434822 -4.793749809265137
-1.607223420611274 -1.481488241868538 -3.902538776397705
-1.607223539820563 0.785730407518821 -4.526683807373047
-0.858314900866401 -1.610810651498360 -4.075220108032227
-0.086287125221145 -1.610810889916939 -0.515177071094513
0.398118586072076 -1.610810651498360 0.291868090629578
1.681336254605401 1.738233433050590 -3.038011550903320
1.717563719281304 -1.568002714829964 3.179708242416382
-1.307749181261909 -1.023885979371590 -4.793749809265137
-0.576978176108253 1.646692738813835 -4.793749809265137
-1.607223539820563 -1.211659683900399 -0.611726105213165
-1.607223420611274 -0.116352035718483 -0.830377876758575
0.212550134190667 1.744814024252372 -0.771037817001343
-1.607223420611274 -0.947426929193062 -1.183508515357971
-1.530844002238166 1.744814143461662 0.676503598690033
-1.422084241381538 1.744814143461662 0.252143174409866
0.548413366803277 1.738683448118644 -4.600850105285645
1.748401374348748 -0.299424900727791 -1.177932620048523
-1.274906306734931 -1.610810770707650 4.283722877502441
-1.607223659029853 0.254037366194206 2.765182971954346
-1.574514537325751 -1.569873943048043 0.036444686353207
0.611897260674584 1.744814262670952 4.568471431732178
-1.607223539820563 -0.811965598779244 1.743019580841064
-0.659009247294318 -1.610810770707650 3.863324165344238
0.477670193442452 0.030204162878471 4.793749809265137
0.320569858678925 1.744814143461662 -1.520387053489685
-1.607223539820563 0.251492992920356 2.449365854263306
1.748401374348748 0.489762709421592 -2.880605697631836
0.216151461729157 1.744814143461662 -1.046844482421875
-0.947399406901252 1.744814143461662 1.077530622482300
1.748401374348748 -0.697146668153328 1.558603763580322
-0.329071997872245 1.744814143461662 -1.022452116012573
-1.266378312579047 1.744814024252372 4.069993972778320
1.748401493558038 -1.306791677194161 -3.149096488952637
-0.689474611750495 -1.610810770707650 2.994396209716797
0.375234872826684 -1.610810770707650 -0.490508496761322
1.748401374348748 1.192362175268608 -2.515115261077881
-0.604233949652564 -1.610810889916939 2.513415098190308
1.394264072903741 -1.610810770707650 -2.511446475982666
1.748401493558038 0.314231620115715 4.090097904205322
1.534995646008599 1.744814262670952 -3.839132785797119
-1.231615691653144 -1.610810770707650 0.477923512458801
0.057782946878422 -1.610810770707650 -3.325828790664673
-1.607223420611274 1.395827994627433 0.419440507888794
-1.537416248789680 1.740975723547416 1.010707855224609
1.428303570279229 1.744814143461662 -3.391356706619263
0.724487514027703 1.744814024252372 -2.383048295974731
1.748401374348748 -0.433629646020455 2.688519001007080
-1.607223539820563 0.785763845724540 -4.181299209594727
1.137430281170953 -1.610810770707650 0.217324808239937
-0.847969680300605 1.685305104536491 -4.753359317779541
0.194681004413712 1.744814143461662 1.220297813415527
1.697173566350091 -1.588392629342598 -3.063843250274658
-1.286832123270881 -1.610810770707650 -1.296147823333740
1.748401374348748 -0.137343837934059 0.647576391696930
0.791776449212182 1.744814143461662 4.362087726593018
-1.607223420611274 0.428638980669456 0.091583177447319
0.264112830885995 -1.610810770707650 3.638288497924805
1.748401255139459 -0.855796947198433 4.404844284057617
1.748401374348748 -1.234002484994454 0.848157227039337
1.360066504010308 0.889506981653648 4.793749809265137
0.938203365334618 -1.610810651498360 1.495288372039795
0.632211477288354 -1.610810770707650 -1.338972091674805
-1.607223539820563 0.543629274649101 -4.336639404296875
1.357053966054070 -1.508112921433968 4.793749809265137
-0.247724889984977 -1.517545714097542 4.793749809265137
-1.538749247065436 -1.605639233308358 4.431012153625488
1.748401493558038 0.805666313452202 -2.333503007888794
1.748401374348748 0.720539913458305 -1.223356246948242
0.457641274460900 0.397164211554008 -4.793749809265137
-1.306576161852729 1.744814143461662 -0.005192185286433
-0.185518889895331 -1.610810889916939 3.146775007247925
-0.103431671133887 1.744814143461662 4.285971641540527
-1.438025742045295 -1.536996974664254 4.793749809265137
1.748401255139459 0.251891315860229 -3.748978853225708
-0.432152419558417 0.871472642702537 -4.793749809265137
0.608029932507623 -1.610810651498360 2.997381448745728
-1.607223539820563 0.867579028887230 0.374059021472931
-0.475369840136420 1.744814143461662 -2.156403303146362
0.562678755053628 -1.610810770707650 -0.672352552413940
-1.607223539820563 -1.306334151940865 0.562299251556396
-1.607223539820563 0.973483131212669 -2.419852256774902
1.748401374348748 1.265727625174003 3.345429658889771
1.157466501721490 1.744814143461662 3.868307590484619
0.334715665110696 -1.610810770707650 3.039503574371338
1.707718343266595 -0.877158298211617 4.699570655822754
-1.476308136454475 1.744814143461662 3.882874488830566
-1.607223539820563 1.628622041029411 -0.855295956134796
1.423379511365044 1.744814262670952 -0.766540527343750
0.354803652295220 1.744814262670952 -1.803732633590698
-1.309924273959052 -1.610810770707650 -4.393889427185059
-0.016161776355159 1.734228358549553 4.613578796386719
-1.607223539820563 0.008850724381881 -3.070622920989990
-1.607223539820563 -0.171282052116913 -2.204103946685791
-1.607223539820563 -0.442584826665444 -0.847835183143616
-0.425906627646339 -1.610810770707650 0.810016930103302
1.748401255139459 -1.238483442979378 -3.425204038619995
-0.983324556818854 -1.610810770707650 2.506357192993164
0.786986619958032 1.744814143461662 2.207690715789795
0.056727776096511 0.739665732664543 4.793749809265137
1.536156267651666 0.415243432802635 -4.793750286102295
-1.607223539820563 -0.989717616754097 1.487198948860168
0.296120510229218 -1.610810651498360 4.378441810607910
1.748401255139459 -0.457053317742867 2.947526216506958
-1.607223659029853 -0.738653793054146 -4.214194297790527
1.691531867512811 -1.594034566598458 -2.624287128448486
0.526759625205148 1.744814143461662 1.953909397125244
-0.371063976755988 -1.453680052476448 -4.793749809265137
-1.607223659029853 1.187273011488395 3.608688592910767
1.444736570843804 -0.733858658986611 4.793749809265137
-1.607223539820563 0.037833369282561 -0.572263479232788
-0.157951696983230 -1.610810770707650 -3.577573776245117
-1.135237365237128 -1.610810651498360 2.234573841094971
-1.321938662997138 0.741979882997947 4.793749809265137
1.748401374348748 -1.371163263040108 -1.764155149459839
0.669165462979424 -1.392579927163643 4.793749809265137
-0.807201116553199 1.744814024252372 1.740419864654541
-1.607223539820563 0.063102000105681 2.192088842391968
-0.420813470354926 -1.610810651498360 1.873761653900146
-0.324703931084525 1.744814024252372 0.350993007421494
-1.025414376726997 -1.610810651498360 4.015235900878906
-1.607223659029853 0.390779809040504 -4.553758144378662
-1.607223539820563 -1.244134320931954 -1.888897418975830
-0.565243213644874 1.675029621405082 4.782717227935791
-1.607223539820563 0.640927062315422 3.370414257049561
0.584648222455132 -1.610810770707650 -4.199521064758301
1.203054756650079 1.744814143461662 2.133636236190796
-0.956854849329841 -0.438409104066414 4.793749809265137
1.748401374348748 -1.171472921090645 -0.384112298488617
-1.607223659029853 -0.347553833442253 -3.902705430984497
-1.406022100916755 -1.610810770707650 2.286936044692993
-0.689747481814277 1.744814143461662 0.372261941432953
1.630180329808343 1.744814143461662 3.626307487487793
-1.607223539820563 0.694398031515556 -2.458571910858154
-0.417026608458411 -1.610810889916939 2.323649406433105
1.399981469639886 1.744814262670952 -3.130542278289795
-1.607223539820563 -0.946415676789803 -4.056847572326660
1.748401374348748 -0.485661639886422 -1.417632222175598
-0.359592228403937 -1.610810770707650 -1.932438015937805
0.820589394101251 1.744814024252372 -4.034615993499756
-1.319330482951057 -1.610810770707650 0.732463836669922
-1.607223539820563 0.368983671946006 3.357005357742310
1.748401374348748 0.357169226688820 3.306130170822144
1.718125195035088 0.227789387983757 -4.669836521148682
-0.574716299048316 0.541897640509086 -4.793749809265137
-0.085542633405578 -1.610810770707650 1.403340458869934
1.748401493558038 0.177431882304626 1.497780323028564
-1.607223420611274 -1.324234499650521 -4.344987869262695
1.748401255139459 0.500665501636940 2.295976161956787
-0.448261945715797 1.744814143461662 2.737237215042114
1.748401374348748 0.456872031969505 2.601184844970703
-1.607223539820563 -0.258664085584206 4.235430717468262
1.748401493558038 0.884135709089714 0.483615547418594
1.748401374348748 -0.096349774914307 1.282628774642944
-1.532736568919074 -1.610810770707650 4.131318092346191
1.748401374348748 1.406110749525505 1.234068989753723
-0.831695466509711 1.739905700964409 4.597357749938965
1.748401493558038 0.195124716443496 2.048928737640381
0.432888210543740 1.744814143461662 -4.035419464111328
0.021376055457938 -1.610810770707650 -1.509561538696289
-1.607223539820563 -1.170208825784249 1.836983084678650
-1.607223539820563 0.042420302463251 -3.419707536697388
1.748401255139459 1.157481894773918 -3.602885007858276
-0.497545986643684 1.744814143461662 1.096359729766846
-1.046745448580634 1.744814143461662 -2.350362539291382
-0.824681609145057 -1.610810651498360 -1.323271036148071
1.111065597066033 -1.610810770707650 -4.388863086700439
1.108800739773858 -1.610810651498360 -0.930844783782959
-1.552179246416938 1.726212606710869 2.405123710632324
1.748401374348748 0.750509069246727 -2.882962226867676
1.709070176610101 1.710499511045890 0.100850902497768
-1.607223539820563 -1.367671146112007 4.286361217498779
1.748401374348748 1.538844332975822 -1.748581290245056
1.748401255139459 -0.113411008434815 -0.672045290470123
1.748401374348748 -0.699483349042458 2.842403173446655
1.748401374348748 -0.339706673341317 4.486375331878662
-1.607223420611274 1.366130695623832 -1.854171276092529
0.730229944714654 0.889803753179985 -4.793749809265137
-1.607223539820563 -0.496285452561898 -2.943575382232666
-0.817457943430793 1.744814143461662 -2.490107297897339
-0.723658113947761 1.744814143461662 -1.857729911804199
1.748401255139459 1.503776893896537 3.463034391403198
1.748401374348748 0.734963760656791 -3.525990962982178
1.457450599202264 -1.610810770707650 -0.389691591262817
-1.607223659029853 0.844539449495750 -2.698354005813599
1.748401374348748 -0.099280267077011 -4.507989883422852
1.748401374348748 0.309981332106071 -0.272761821746826
0.120525372007239 1.665277228636223 -4.793749809265137
-1.607223420611274 0.137349151951748 1.631360173225403
-1.607223420611274 -0.743203773217720 2.567024230957031
0.690442533024896 0.276327536386924 4.793749809265137
1.458992809781182 -1.610810770707650 -2.776087522506714
1.313529104718316 1.744814024252372 -0.072753801941872
-1.607223659029853 -0.058882652836365 0.098106712102890
-1.326994925013435 0.496994749588447 -4.793749809265137
-1.607223420611274 1.660069809240776 -2.140204906463623
0.213389352687943 1.744814143461662 -4.181714057922363
-1.607223539820563 0.058643648346441 2.967319250106812
1.748401493558038 -0.431859686093850 -3.793076276779175
-1.607223539820563 -0.948581113534493 -1.612222433090210
-1.607223539820563 -0.764078273492379 -0.859674394130707
-1.607223659029853 1.145330891890007 0.221634075045586
-0.544460862151038 1.744814143461662 -2.483146190643311
1.748401374348748 -0.102467595654053 -2.404809236526489
1.275808186062920 1.642263160032707 4.793749809265137
-1.607223539820563 -0.501823618131203 0.460765212774277
-1.607223539820563 -0.698332085328621 2.023938655853271
1.748401493558038 0.753625498098808 -0.215189903974533
0.598068685063470 1.744814262670952 -1.928708076477051
1.005908460148919 -1.610810770707650 2.528840541839600
-1.348175673952949 1.744814024252372 -2.396489620208740
-1.081144958010566 0.853605196756797 -4.793749809265137
0.519374818333733 -1.610810770707650 1.517766714096069
1.136414498814690 1.665554390234428 -4.793749809265137
-0.302415668240440 1.673005686087089 4.788499832153320
1.748401374348748 -0.931408657746834 2.403437376022339
-1.592244892588508 -1.552143587785286 -0.468090236186981
1.456608027943719 -1.610810770707650 1.350730419158936
1.445756525525201 1.744814024252372 -2.578595161437988
-0.904214172831428 -1.610810651498360 1.038714408874512
-1.607223539820563 -1.143638624864144 2.108799695968628
1.177944273480523 -1.610810651498360 3.946846961975098
-0.078073798886191 -0.278175040202660 -4.793749809265137
-0.400930314532172 -1.610810770707650 1.609134674072266
-0.837447314730537 1.005412504953819 4.793749809265137
-1.607223539820563 0.428693280500847 3.629737615585327
1.701783866414178 -1.583782329278511 -3.615347862243652
1.073257774838555 1.744814143461662 -3.554006099700928
-1.607223539820563 0.810722575468498 1.174509763717651
1.748401374348748 -0.525459780412239 -2.931973934173584
-1.368045716753852 1.744814024252372 -3.243499994277954
1.144579381474603 1.744814262670952 3.037146091461182
-1.607223420611274 0.297456757111030 -0.596077859401703
1.748401493558038 0.060183255413103 3.116734027862549
0.570616573819268 1.744814143461662 3.713803768157959
-1.575881748667609 0.029406984282213 4.672881603240967
-1.607223539820563 0.425719723982292 -3.035001277923584
0.447197288998711 1.744814262670952 -0.285322368144989
-1.607223539820563 -0.535015239434761 4.086813449859619
1.748401374348748 1.670483098310905 1.484976291656494
1.748401374348748 0.493000493330436 3.619179248809814
1.158566088208306 1.744814024252372 4.156483650207520
1.748401374348748 0.579439506811577 -3.737274408340454
-1.607223420611274 -1.238750710206551 -1.279237508773804
-1.079645305148017 1.744814143461662 3.268899917602539
1.748401255139459 -0.035292162614388 -0.963639080524445
1.748401374348748 -0.401037975268883 1.995693922042847
1.501206130513299 1.744814143461662 2.055977344512939
-0.979354410639655 1.421332106871086 -4.793749809265137
0.706773907670129 -1.610810770707650 -0.237559020519257
-1.607223539820563 -1.123951091485543 1.059915542602539
0.554352939852822 1.744814262670952 4.040640354156494
-0.631928532591712 1.744814143461662 -4.104661464691162
0.657763690480340 1.744814024252372 2.800696849822998
0.991915792950738 -1.610810770707650 -3.832426548004150
-0.301122217646491 -0.931977107244057 -4.793749809265137
-1.183341413012397 -1.610810770707650 1.050047159194946
0.297358603009332 1.744814024252372 -3.514511823654175
-0.846174924841773 1.744814143461662 -3.498302936553955
1.691927999981988 1.727641926092582 -2.420357465744019
1.748401493558038 1.406746731085258 0.139019787311554
-1.607223420611274 1.329224572462516 -0.589399218559265
-1.607223420611274 0.990436301512199 3.436639308929443
1.748401374348748 1.029645369333702 -3.368123292922974
-0.209633200636756 1.744814143461662 1.301910996437073
-1.607223659029853 1.511632905287223 0.840154409408569
1.059150845536340 1.744814143461662 -4.156541824340820
1.748401374348748 -0.669856562333626 3.241054058074951
-1.607223539820563 -0.344645633416695 -2.408554792404175
-1.086172371378791 -1.610810651498360 1.854225397109985
1.226006121167291 0.619240091127830 4.793749809265137
1.748401374348748 -0.956068649011177 3.682841777801514
1.468418449887383 1.744814143461662 3.964876651763916
1.297648758420098 -1.610810770707650 -3.007278442382812
-0.493929415217292 -1.610810770707650 -2.842705011367798
0.165124543735135 0.036621509996730 4.793749809265137
1.748401374348748 -0.683557703214211 0.412497937679291
1.738790006169427 -1.178783073144478 4.610794067382812
-1.584378509989631 1.694013462347465 -0.392559587955475
-0.071846842041862 -1.610810770707650 -3.905194282531738
-1.503369718066108 -1.610810651498360 3.689385175704956
0.620423407086480 1.744814143461662 -1.669922232627869
1.748401255139459 -0.183555110412163 0.367750525474548
1.359644026288140 1.744814143461662 -1.040522336959839
0.785816103943932 1.744814262670952 -3.039215564727783
-1.115753679743659 -1.610810889916939 -1.513323783874512
-1.031471162310493 -1.610810770707650 3.740184783935547
0.781904310711968 1.744814262670952 -0.005108075216413
-1.607223539820563 -0.920609607415718 -2.632606506347656
-1.607223539820563 -1.094302668290657 -3.336548805236816
1.748401374348748 0.547291324419456 4.577181816101074
-0.798299460879218 -1.610810770707650 -3.711388587951660
-0.684269457331550 -0.244220062213463 4.793749809265137
0.977431983479607 1.744814143461662 3.365017414093018
-1.607223659029853 -0.006549774723572 -1.510220170021057
0.601199597844231 -0.209493919330162 4.793750286102295
0.287817866334069 -0.484101607518715 -4.793749809265137
0.145770289727795 -1.610810770707650 3.223585128784180
-1.607223539820563 0.113333721590715 -0.135918870568275
-0.623140542975318 1.744814143461662 4.165072441101074
0.355813265570748 -1.610810770707650 -3.902907609939575
1.560200304516900 -1.278048886971993 4.793749809265137
-1.278745680323493 -1.610810651498360 -2.207312345504761
-1.607223539820563 0.371482358259636 -0.179735139012337
-1.607223539820563 0.290822864455658 0.675072312355042
1.631010503300774 1.341076717657524 -4.793749809265137
1.748401493558038 -0.412997677045388 -1.739181041717529
-1.607223659029853 1.525203094763237 0.084880635142326
-0.506725996008765 1.744814024252372 3.389781951904297
-0.061931609383475 -0.577186896520180 -4.793749809265137
-1.607223420611274 0.699995265287834 -1.486638903617859
0.917227000722039 1.744814143461662 2.690277338027954
1.748401255139459 -0.472659959512276 -0.813398361206055
1.264606685170281 -1.610810770707650 0.903671383857727
1.748401374348748 0.175558657330948 3.561772584915161
1.748401493558038 1.443063841146904 1.626177072525024
-1.260213642588508 1.744814143461662 -3.989963531494141
1.748401255139459 0.201863364262062 -0.032138425856829
1.418711037167657 1.744814143461662 2.927052259445190
-0.905089526644599 -0.333619131761116 -4.793749809265137
-1.526356606951606 1.740353331846672 4.596078395843506
-1.216286211481940 1.744814143461662 -0.304465830326080
1.748401493558038 -0.897559597211403 -1.800788640975952
-1.607223539820563 -0.456329240518135 -2.000598669052124
-1.214010744562995 0.490667180103737 4.793749809265137
1.748401374348748 -0.396296455579323 4.142984390258789
0.401768655308831 1.744814143461662 4.351320266723633
0.709754080304253 1.109191999716240 4.793749809265137
-1.607223420611274 -0.110629632192177 1.503539323806763
-1.607223420611274 -0.846620931344551 -3.487174987792969
0.888319761284936 -1.610810651498360 -0.692460536956787
1.302086681851495 -1.610810889916939 -0.142194822430611
-0.428718029728782 1.744814262670952 -1.689266443252563
-1.607223420611274 0.514767036718803 -3.352356910705566
1.748401374348748 -0.715135945992989 2.222213745117188
1.748401255139459 -0.177982463555855 -3.991856575012207
-1.607223420611274 -1.389414324479622 2.324481487274170
0.787031502255547 -0.091740860658211 -4.793749809265137
0.239926905163873 -1.610810770707650 -2.548986911773682
1.748401374348748 1.305691108984428 -0.450421750545502
0.335975260266412 -1.113353504853768 -4.793749809265137
-1.607223539820563 -1.029261245446724 0.442849993705750
1.748401255139459 -1.242492809014839 3.987974643707275
0.101774227598060 1.520675406736808 4.793749809265137
-1.607223539820563 -0.621772720532936 0.691198110580444
1.748401493558038 0.912517175955253 4.281173229217529
0.858090610036004 0.726509557051140 4.793749809265137
1.748401374348748 -0.928625955300850 0.324221193790436
-0.181016772261512 -1.610810651498360 2.185656309127808
-0.429532020560157 1.744814143461662 -4.328335762023926
-0.071268110743415 1.744814143461662 -2.498324155807495
-1.607223659029853 -1.315374388413948 -2.809719562530518
-0.782630353442084 1.744814024252372 -1.285202383995056
0.238526285418618 1.744814024252372 0.668015837669373
-1.525296597948920 1.744814024252372 -4.007887840270996
1.748401255139459 -1.401413335519356 2.600866794586182
1.748401255139459 -0.674977435784859 3.525527238845825
-1.607223659029853 1.311098323149162 -0.865961253643036
-0.214116632214439 1.744814262670952 3.514214038848877
1.748401493558038 -1.372849597650093 -2.790754318237305
-1.607223539820563 -1.210183753686470 -4.080961227416992
-0.979438691607368 -1.610810889916939 1.313602924346924
1.359501213559258 1.744814262670952 1.065603494644165
1.196655125149835 0.605041847509819 -4.793749809265137
-0.189216464033973 -1.610810770707650 0.658005356788635
1.576696962842095 -0.432015850263161 -4.793749809265137
-1.290628223887336 1.744814143461662 0.929161727428436
-1.577180533877265 1.701211319250541 -1.863889694213867
0.786475510129083 -1.610810770707650 3.947134971618652
1.449160665997613 -1.610810651498360 -0.739620149135590
-1.607223539820563 0.037294766811209 -2.424014568328857
0.605673582085717 -1.610810651498360 -1.636278390884399
-1.607223539820563 0.160791621489006 3.698313951492310
1.748401374348748 -1.496466531472725 0.068958669900894
0.165911779531587 -1.610810770707650 -1.816535115242004
0.937638253697503 -0.432031824307961 -4.793749809265137
1.748401493558038 0.178164415938335 1.776383876800537
0.186703287788976 -1.610810889916939 2.355964422225952
-0.098718463650596 1.744814143461662 -4.302296638488770
-1.607223539820563 -0.528922214227242 -4.400924205780029
-0.475729256144416 -1.610810770707650 3.183933019638062
1.748401374348748 0.551200882477241 -1.004714250564575
-0.994616299143684 1.744814262670952 0.807101428508759
-1.607223420611274 0.782426581663566 -0.887215375900269
-1.304958253374946 1.744814143461662 -1.410161972045898
0.929313988217461 -1.276056422906441 -4.793749809265137
-0.109609379640472 0.763141856474357 -4.793749809265137
0.316851735838998 -1.610810889916939 2.047160148620605
1.748401255139459 -0.435604586320443 -2.014708757400513
-1.607223539820563 0.946663306040245 2.409051179885864
-1.437342315188300 -1.121262922006173 4.793749809265137
1.748401374348748 0.836261139196830 -4.370982170104980
-1.607223420611274 0.522865013164955 1.691772699356079
1.748401374348748 -0.397068246322197 1.334161996841431
-1.607223539820563 -0.565582527833504 -3.246382713317871
1.748401374348748 -0.151204853373093 1.669027209281921
-0.748298197260749 -1.610810770707650 -2.409532070159912
-0.587131827345740 0.506233737749534 4.793749809265137
-0.252977072468650 -1.610810770707650 -4.172469615936279
1.432771772870171 -1.610810770707650 3.345613002777100
-1.607223539820563 0.098277163637357 0.311931580305099
0.135724366435159 0.423202977461296 -4.793749809265137
-1.607223420611274 -1.082019104676766 4.256479263305664
1.748401374348748 -0.979233994203133 -3.452737092971802
-1.607223539820563 -0.620468094068093 -2.223762750625610
-1.607223420611274 0.372664914411979 3.047144651412964
-1.607223539820563 -1.376141323762459 -1.057886004447937
1.748401374348748 1.354400501532036 3.686631917953491
0.722084612378228 -1.610810651498360 -2.168091297149658
-1.607223539820563 -0.909889473634285 2.330283641815186
-1.607223420611274 -1.324877752976937 3.465017318725586
-0.094288676253211 1.744814143461662 3.750508069992065
-0.171094804278266 1.744814143461662 -0.502767443656921
-0.587522297373664 -1.610810651498360 -2.182425737380981
0.193193518349278 -1.610810770707650 -2.837389469146729
-1.607223420611274 -0.809898748117012 4.401453971862793
-0.152195572129142 -1.610810770707650 2.472174406051636
-0.801287262907874 0.690416620058494 -4.793749332427979
1.748401374348748 -0.693532242494149 -1.611910462379456
-1.607223539820563 1.227604375166374 0.638529658317566
-1.607223659029853 0.602191255373436 2.918408870697021
-1.607223539820563 -0.998557939248604 0.091362982988358
1.603243917950738 -1.589683665948433 -4.643696308135986
0.190921650060761 1.744814262670952 -3.159579038619995
0.865923852452386 -0.425306304412407 4.793749809265137
-1.588019519320380 -1.556369080262703 -4.169982910156250
0.299467445143807 -1.610810770707650 -0.986999630928040
1.748401255139459 1.197487101835685 -0.692057490348816
0.202391297349084 1.744814143461662 -0.453542679548264
0.222808883318055 0.540046886486488 4.793749809265137
-1.607223539820563 -0.351248069720787 3.828169107437134
-0.125722586384666 -1.610810770707650 -1.774921298027039
-1.607223539820563 0.065332391244846 1.913010835647583
0.460512877234567 1.744814143461662 0.486512362957001
-0.761440186968696 0.968103037161308 -4.793749809265137
1.748401374348748 1.329044447226005 -1.448432922363281
-0.564296215048682 1.744814262670952 -1.138926386833191
1.748401255139459 0.330932096523719 -4.134790897369385
-1.607223539820563 -0.281036987023873 -0.048060167580843
1.073591799267877 1.744814143461662 0.895365297794342
-1.219932227602851 1.744814024252372 1.595769762992859
-0.085046037307632 -1.610810770707650 -2.520709514617920
1.016995400914300 1.432330951971489 -4.793749809265137
0.780613512524712 -1.610810770707650 -3.097626686096191
-0.517711787691962 -1.610810770707650 -3.148563623428345
1.748401374348748 1.201510057730156 1.783890366554260
-1.607223539820563 0.235023737830597 -1.733075380325317
-0.006384461394202 0.017004792524057 -4.793749809265137
1.748401374348748 -0.498578502851052 -3.197498798370361
-0.361133485308540 -1.610810889916939 -2.330365657806396
1.102787942418206 -1.610810651498360 3.682069301605225
0.656705827244866 1.744814143461662 0.660327792167664
1.291237086781609 1.744814143461662 0.436148464679718
-0.268416523209464 1.744814024252372 -3.472215175628662
1.748401374348748 -0.425934060531182 -4.264806747436523
0.496279329785455 -0.258414878564400 -4.793749809265137
1.685263962277520 -1.600302591043038 -1.919983148574829
1.748401493558038 1.433007703108268 -3.503905773162842
-0.787745862475288 -1.610810770707650 -0.323081284761429
-1.049239902964484 1.744814143461662 -1.578567385673523
-0.134313165417564 -1.610810889916939 4.493032932281494
-1.607223539820563 1.405004368109184 3.285000324249268
1.748401493558038 -0.352087094502968 -2.715934514999390
0.789877147206414 0.014231969547945 4.793749809265137
-1.278477578631293 -0.215846910195870 -4.793749809265137
1.748401374348748 0.670379982275444 -0.765229105949402
1.013047129639733 1.744814143461662 -0.133312016725540
1.080752462872613 -1.610810889916939 3.399049520492554
1.748401374348748 -1.536468758302254 1.042471051216125
-0.367839961520087 -1.610810770707650 4.189423561096191
-1.607223539820563 1.532733068747001 -3.142467737197876
1.748401374348748 -0.720890655236763 -4.368294715881348
1.748401493558038 0.902113662046867 2.348731517791748
-1.077100186816108 1.744814143461662 -1.838935136795044
1.748401255139459 -1.086453809457344 -4.422430038452148
1.748401493558038 -0.110306172686142 3.362573623657227
-0.616527705660712 1.744814143461662 2.996987342834473
1.748401493558038 0.311382607502418 0.275810301303864
-1.001212268343818 -0.946735872941536 -4.793749809265137
-1.228925376406562 1.744814143461662 3.538703680038452
0.941510767468560 -0.970105900483651 -4.793749809265137
-1.516380219927680 1.744814024252372 4.294423103332520
-1.527817516795051 1.744814143461662 2.725007057189941
1.371281952389825 1.744814262670952 -2.866401672363281
0.244962156542886 1.271249041838127 -4.793749809265137
1.351871461400140 1.744814143461662 -4.069104194641113
-0.054160765579593 -1.610810889916939 4.172659397125244
-0.100160031786811 1.744814262670952 -4.014656543731689
1.748401493558038 -0.467298998551888 0.674646854400635
-0.657841830721748 1.744814143461662 -0.172259554266930
0.777716130742181 1.744814143461662 1.820460677146912
-1.607223539820563 0.882924065870720 -3.768521785736084
-1.090253024569404 -1.610810770707650 -2.405705213546753
-0.123473673334968 -1.610810651498360 3.424905061721802
-1.607223539820563 1.218961224836784 1.826496720314026
1.748401255139459 0.781094715876060 -4.090125083923340
1.443104357251275 1.744814262670952 1.420361399650574
-1.607223420611274 -0.335012628751320 0.804293990135193
1.379819364079583 -0.233124299960656 4.793749809265137
1.748401374348748 -0.269960775094551 3.154041290283203
-1.607223420611274 0.932341680807548 0.715973496437073
-0.480653017035377 1.744814262670952 -1.427122831344604
1.420171589383233 -1.051182880120797 4.793749809265137
-0.261400371065986 1.744814143461662 -3.785222768783569
-1.040264277926337 1.744814143461662 -3.290375947952271
1.748401493558038 1.522769437117057 0.963517189025879
-0.819913356772315 -1.610810770707650 2.297821283340454
-1.607223420611274 0.303419516367393 -3.630454063415527
1.748401493558038 -0.594045355039162 -0.468032151460648
1.748401374348748 1.096851215643364 3.626113414764404
1.748401374348748 0.829376504702049 1.310726165771484
1.668743819722283 1.744814143461662 2.261755466461182
1.748401374348748 -1.049180879312081 -0.970082581043243
1.748401374348748 1.164785013479667 4.449988842010498
-0.650074630251777 1.744814024252372 3.679653167724609
1.346051783093560 0.025846046341139 4.793749809265137
-1.240701227656257 -1.610810770707650 -0.945151329040527
-1.607223539820563 -1.314230932908577 0.158705294132233
-1.607223539820563 0.049187949804145 4.064637660980225
1.748401374348748 -1.239624395089669 1.224946498870850
-1.550061135760200 -1.594327344613594 -2.661075353622437
1.748401493558038 0.352180407328087 -3.143550872802734
0.626382798680413 1.744814143461662 -4.323003768920898
0.223050803670037 -1.610810889916939 4.024940490722656
1.296077579983819 -1.610810889916939 1.868747591972351
-0.572248487940681 -1.610810651498360 -1.422385215759277
-1.401939540377509 1.744814262670952 -1.035263657569885
-0.072377144566428 -1.268028630929512 4.793749809265137
1.748401255139459 1.467799768728691 -2.353725671768188
-1.607223539820563 -1.453051938729805 -3.376486301422119
1.424644917973626 1.744814143461662 -1.624023914337158
-0.066867231598746 1.744814143461662 -0.180481866002083
-1.607223539820563 0.497417763752418 1.051587820053101
0.603057832249749 0.546804533285576 4.793749809265137
1.748401493558038 -0.135981245952172 4.143476486206055
-0.289569228163612 -1.610810770707650 -1.424595832824707
0.788478345402825 -1.610810770707650 -1.851435065269470
1.748401255139459 0.760561452192741 -2.613675117492676
-0.188296078911674 1.744814262670952 0.645706951618195
1.515091032513726 0.753888593000847 -4.793749809265137
1.748401374348748 0.943408475202995 1.552335858345032
-0.618183820715797 -0.508055104928536 4.793749809265137
-0.692739396563422 1.744814024252372 1.480772733688354
-1.607223539820563 -0.686393930631203 -2.501019954681396
1.455940336712945 1.744814024252372 -0.491313159465790
-0.337708740702521 1.175201282782036 4.793749809265137
-1.607223659029853 -1.077205433564705 2.848181962966919
0.689550668725121 -1.610810770707650 4.230671405792236
-1.336903958788764 0.193837315720993 4.793749809265137
-0.711776404848945 -1.610810770707650 4.121522903442383
-0.288723736277473 -1.610810889916939 3.778173446655273
-1.607223420611274 0.864226923269706 2.926937103271484
-1.607223539820563 -0.227364196496529 -2.882572889328003
-1.019763379565131 1.744814262670952 2.225761651992798
1.748401255139459 -1.090899600701851 1.542899966239929
0.398591578730691 -0.493262304978890 4.793749809265137
-0.097837626210105 1.744814143461662 -0.768955171108246
1.748401493558038 0.491680906099754 -4.371689796447754
-1.607223420611274 1.396531448645073 -3.379689216613770
1.748401374348748 0.762372896952110 2.595104694366455
1.748401374348748 -0.403550400453133 1.022164344787598
1.126784891614068 -0.196739866452736 -4.793749809265137
1.748401374348748 -1.255691661553902 -2.368225574493408
1.748401374348748 -0.404531910138649 3.632150173187256
-1.607223659029853 -0.722031368928475 2.866986274719238
1.748401255139459 -0.781195893006844 -2.097541570663452
1.377475590237725 1.744814143461662 3.300976514816284
1.302260131367791 1.744814143461662 -3.696947336196899
-1.607223539820563 -0.541161551194710 -0.586130023002625
-1.299359350672614 1.047238693518119 4.793749809265137
1.748401255139459 1.494033441824394 0.643533289432526
-1.584140329829108 -1.091625227647347 -4.649285793304443
0.935389966496575 1.744814143461662 -1.577637791633606
-1.049195795527351 -1.610810770707650 0.665539622306824
1.748401374348748 -0.492001547532601 1.725618362426758
-1.607223539820563 1.388641224188286 -0.262694299221039
1.056352467068780 1.744814024252372 -1.226714611053467
1.028351575860131 1.744814143461662 -3.214668512344360
1.748401374348748 1.466066346449333 4.433495521545410
-1.607223539820563 0.864870772642570 4.371865272521973
0.166881643959630 1.744814143461662 3.181178092956543
1.748401374348748 -0.222013278918785 -3.048935174942017
1.748401374348748 1.071450338644462 3.139898777008057
-1.607223420611274 0.810926900190788 4.004931926727295
-0.255085974207770 -1.610810651498360 2.773687362670898
-1.343519478312385 -1.610810770707650 -1.932475090026855
-1.607223659029853 0.221285969895797 -3.954292297363281
-1.396742849818122 -1.610810770707650 -0.170739278197289
1.748401374348748 0.481015727800804 0.905001938343048
-1.039030580988776 -1.610810651498360 -2.943727493286133
0.886225075253594 -0.925061835961861 4.793749809265137
1.357803077229607 1.363065109533744 -4.793749809265137
1.748401374348748 0.770583973211723 -2.025285720825195
1.748401255139459 1.331740961355644 0.421268373727798
1.748401255139459 -0.292554154115242 0.038580682128668
0.148323320576299 1.744814143461662 -1.308562397956848
-0.642150311938178 -0.474845363812966 -4.793749809265137
-0.248623698225867 -1.610810889916939 -3.267300367355347
-0.677910714617622 -1.610810770707650 3.375623226165771
-0.607635348311317 1.140261040014702 4.793749809265137
1.748401374348748 0.578137145323234 -1.782841563224792
1.748401374348748 0.321152047199684 1.249378681182861
1.748401374348748 -0.746578468995613 1.846758604049683
-1.081458716860664 1.293389187139946 4.793749809265137
0.362565160521615 1.558185801786857 -4.793750286102295
1.748401255139459 1.032778785509544 2.008592605590820
-1.329477577677619 1.744814262670952 -2.050527095794678
1.748401493558038 0.924597845358329 -3.080629587173462
0.157025136777509 1.744814143461662 2.026022195816040
0.577349097260583 -1.283689632134957 -4.793749809265137
-0.255180417767417 1.744814143461662 2.218485355377197
1.748401374348748 -0.978266968446297 4.055075645446777
-0.345375596753013 0.022850298268276 4.793749809265137
0.267723382243264 1.744814024252372 0.287471234798431
0.831390470990289 -1.610810770707650 3.193032264709473
-0.431414752474677 1.744814262670952 4.488412380218506
-0.164026095739257 1.744814143461662 -1.688018321990967
-1.607223539820563 -1.084836258607430 3.695516109466553
0.950690538415063 0.476066634935814 4.793749809265137
-0.109169601670158 -1.610810770707650 -2.969513177871704
0.533977419861901 1.744814143461662 -2.585896015167236
-0.342753230801475 1.744814024252372 1.920299768447876
1.748401493558038 0.792540536207634 0.191683933138847
0.211881280669320 1.744814143461662 1.710598230361938
1.748401255139459 -0.742927505689186 -3.625267267227173
1.748401374348748 1.436214790625053 -3.829583883285522
1.748401374348748 1.028000102323967 -1.689437985420227
-1.607223539820563 -0.043039291220230 -3.958042621612549
-0.757677166930091 -1.610810889916939 2.738616466522217
-0.216636865607154 1.744814143461662 -1.393303990364075
-1.035242825022590 0.534224853796440 -4.793749809265137
1.236301631459344 -0.531749024110360 -4.793749809265137
0.419419706591714 -1.610810770707650 1.264194369316101
0.935112983712304 -1.610810651498360 -0.089958235621452
-1.588700800410163 0.868291185183006 4.636255741119385
1.748401374348748 0.580009684843498 3.945236206054688
1.045926601418603 1.744814262670952 -2.332755565643311
1.748401374348748 1.123823628706413 2.501596450805664
0.245288939007867 1.744814143461662 -2.429687738418579
-1.194357781878364 1.744814143461662 2.714848995208740
-1.607223659029853 -0.158110945539994 3.297061681747437
-1.607223539820563 0.566072449964958 4.469324111938477
1.322336644658196 -1.610810770707650 -1.468609452247620
