# This PCD file was generated using the MATLAB® pcwrite function
# from Computer Vision Toolbox®.
# .PCD v.7 - Point Cloud Data file format
VERSION .7
FIELDS x y z
SIZE 8 8 8
TYPE F F F
COUNT 1 1 1
WIDTH 860
HEIGHT 1
VIEWPOINT 0 0 0 1 0 0 0
POINTS 860
DATA ascii
0.495788455009460 -1.677812576293945 3.735984802246094
0.460560321807861 -0.717601776123047 -4.793749332427979
-0.830516338348389 -1.677812457084656 0.300531119108200
1.677812457084656 -1.342683911323547 1.991040706634521
1.677812337875366 0.840734243392944 -0.894952356815338
1.677812457084656 1.180385947227478 -2.782566070556641
1.677812576293945 0.227231919765472 -1.538716197013855
1.677812457084656 -0.658415436744690 0.052483260631561
1.493434667587280 -1.677812337875366 1.723396778106689
0.906055986881256 1.677812337875366 1.172718167304993
1.535964488983154 -1.391481637954712 -4.793749809265137
-1.677812457084656 -0.266727834939957 2.997401237487793
0.729371845722198 1.139824390411377 -4.793749809265137
-0.394324392080307 1.677812337875366 4.131298542022705
-1.433967232704163 0.860734462738037 -4.793750286102295
-1.677812576293945 -1.276911973953247 -3.098355054855347
0.863218903541565 0.602988004684448 -4.793749809265137
-1.677812457084656 -1.413595795631409 -2.516033649444580
0.818266630172729 -1.277806997299194 4.793749809265137
1.606592893600464 1.675386190414429 3.367529630661011
-1.677812457084656 -1.282353639602661 -1.569722294807434
0.148628458380699 -1.677812337875366 -3.621709346771240
-1.677812457084656 -1.593849420547485 -4.576267719268799
0.501587986946106 1.677812457084656 -1.249563336372375
-0.910695075988770 1.677812337875366 2.709379196166992
-1.365392923355103 -1.677812457084656 2.557707071304321
-0.784298777580261 0.209576785564423 4.793749809265137
1.677812576293945 0.756832838058472 -0.552651226520538
-1.677812576293945 -0.467142671346664 3.176805496215820
0.977974355220795 0.105053208768368 4.793749809265137
1.677812576293945 1.345935940742493 2.066775321960449
1.677812457084656 0.362499922513962 -2.602872133255005
1.677812457084656 0.025484630838037 -3.243831396102905
0.283256232738495 -1.486684441566467 -4.793749809265137
-1.677812337875366 0.604377567768097 -0.582050025463104
1.677812457084656 1.440903186798096 -4.212487220764160
-0.830543875694275 1.677812337875366 -2.115861177444458
-1.677812457084656 -0.528844475746155 1.134347796440125
1.677812457084656 0.079367868602276 4.328394412994385
-1.034920096397400 -0.142129689455032 4.793749809265137
-1.271575808525085 -1.490096092224121 4.793749809265137
-1.677812337875366 -0.754283070564270 -0.188589468598366
-1.677812457084656 -0.451248943805695 1.420077443122864
1.648817181587219 1.633162021636963 -2.698988199234009
1.598281145095825 0.677371978759766 4.793749809265137
0.614049255847931 -1.647871255874634 -4.668879508972168
-0.816298723220825 1.677812337875366 2.015948772430420
-1.209875583648682 1.677812457084656 -0.603486716747284
-1.677812457084656 -0.066194988787174 4.332410335540771
1.677812457084656 -1.596195697784424 0.752217710018158
-1.677812457084656 0.441661149263382 3.917471408843994
1.677812576293945 0.622392416000366 1.086899518966675
-1.496380567550659 -1.677812457084656 1.792026042938232
0.564610064029694 -1.677812457084656 -3.912679433822632
0.244138792157173 -1.677812457084656 -1.546804189682007
-1.677812457084656 -0.888461470603943 3.557219982147217
-0.219152256846428 -1.677812576293945 -1.163803339004517
1.677812457084656 -0.815923452377319 -0.771980583667755
-0.570307433605194 -1.677812457084656 -0.658863663673401
-0.423339784145355 1.677812457084656 -2.687851428985596
1.677812457084656 0.836575031280518 3.345694065093994
-0.812517881393433 1.677812457084656 -2.773139953613281
1.677812337875366 -1.049063324928284 3.299911975860596
0.811018168926239 -1.677812457084656 2.756655931472778
-0.464400231838226 -1.677812576293945 -2.598007202148438
1.677812457084656 -1.263256072998047 3.036370277404785
-1.677812337875366 -1.082519054412842 -4.330113887786865
0.751804113388062 1.677812457084656 -4.542376518249512
1.372828364372253 -1.677812337875366 3.614203453063965
0.984627425670624 1.677812457084656 -1.845598101615906
-0.414145737886429 -0.051150020211935 -4.793749809265137
0.282270133495331 -1.369512796401978 4.793749809265137
1.677812457084656 1.443289756774902 -3.211102008819580
0.060727059841156 1.677812457084656 2.722173929214478
1.199586272239685 0.209127187728882 -4.793749809265137
-0.723233222961426 -1.161348104476929 -4.793749809265137
-1.283194541931152 -1.677812457084656 3.530562400817871
-0.733013868331909 -1.677812457084656 4.409650802612305
1.677812457084656 -0.163269624114037 2.085281610488892
-1.382162809371948 0.003685579868034 -4.793749809265137
-1.582496881484985 -1.677812457084656 -0.973407864570618
0.756132364273071 -1.677812457084656 -2.430720329284668
0.222998306155205 0.989227354526520 4.793749809265137
-1.022013783454895 1.677812457084656 0.477064490318298
-1.677812457084656 0.011079390533268 3.419294595718384
1.677812457084656 -1.350945353507996 0.359341323375702
1.643761873245239 -1.638217210769653 -2.366399526596069
-1.576038122177124 1.677812457084656 2.060870409011841
1.677812457084656 -0.685294210910797 4.546495437622070
1.677812576293945 0.922336399555206 -2.756539344787598
-1.677812457084656 1.359983801841736 2.829648733139038
0.489645719528198 -1.677812337875366 -0.933345258235931
-0.555356681346893 -1.677812576293945 -3.552008390426636
1.677812576293945 0.202686652541161 -2.036059856414795
0.525616884231567 -0.730466783046722 4.793749809265137
0.070414431393147 -1.677812576293945 -2.253128051757812
1.677812457084656 -1.414959192276001 3.708066940307617
-0.316034138202667 1.539979934692383 -4.793749809265137
-1.076834678649902 -1.677812457084656 -0.670368969440460
0.846382915973663 -1.677812457084656 -0.394832253456116
1.677812457084656 1.259148359298706 3.966751098632812
1.511660695075989 -1.677812337875366 2.046215534210205
-0.050278134644032 1.677812457084656 -3.566413402557373
1.318559169769287 -1.677812457084656 -2.248752593994141
1.677812337875366 -0.751966714859009 -2.668056249618530
1.677812576293945 -0.927571415901184 -2.930677413940430
-0.140431478619576 -1.677812457084656 -0.812735438346863
1.677812337875366 -1.394613981246948 -0.653170168399811
1.677812457084656 0.229127064347267 -0.584152996540070
1.677812457084656 -0.175588220357895 -2.131303787231445
-0.824772477149963 -1.677812457084656 -3.029700994491577
-1.064592838287354 1.573630452156067 4.793749809265137
1.539994001388550 1.677812457084656 -4.116852283477783
1.677812337875366 -1.461310744285583 -4.511741638183594
1.471200942993164 0.005826614331454 -4.793749809265137
-1.677812457084656 1.158955216407776 -4.057073593139648
-1.373702526092529 1.376639127731323 4.793749809265137
-1.677812457084656 1.044034242630005 3.864077329635620
-1.653802633285522 0.250030040740967 4.651932716369629
-1.036119103431702 -1.677812337875366 1.592988371849060
1.600193977355957 1.677812457084656 -0.908782243728638
0.601406037807465 1.677812457084656 2.460584163665771
1.159700036048889 -1.677812457084656 1.551948547363281
1.677812576293945 -0.223525255918503 -3.462281227111816
-1.587752223014832 1.677812457084656 1.595192193984985
1.677812457084656 0.499230504035950 1.735110521316528
1.677812457084656 -1.297310352325439 3.380408287048340
0.178469449281693 -1.677812337875366 -3.122796058654785
0.356370210647583 -1.677812457084656 -4.580977439880371
0.821221828460693 -1.677812337875366 -3.522440910339355
0.154013961553574 0.921235322952271 -4.793749809265137
-0.858052015304565 -1.677812576293945 1.826127529144287
1.589238166809082 -1.677812457084656 2.343610048294067
1.677812457084656 -1.429853081703186 -3.862004995346069
-1.677812457084656 -0.704576194286346 -1.090502023696899
1.564368367195129 -0.622891187667847 4.793749809265137
1.677812576293945 -1.070508480072021 -2.676339149475098
0.101943291723728 0.627685308456421 -4.793750286102295
-1.570980072021484 -1.677812457084656 1.199164986610413
-1.440421938896179 -1.584815263748169 -4.793750286102295
-1.677812457084656 -1.437310099601746 2.587760448455811
0.072164319455624 -1.677812576293945 0.200975537300110
-1.665955305099487 -1.616023778915405 0.445217847824097
1.677812576293945 0.803496778011322 -3.843886375427246
0.237965926527977 -1.677812457084656 -4.350271701812744
-1.677812457084656 -0.320634633302689 -0.500173330307007
0.704855859279633 -1.677812337875366 2.208779573440552
1.677812337875366 1.584692716598511 1.818667531013489
0.880680441856384 1.165990948677063 4.793750286102295
0.738420009613037 -0.806009411811829 -4.793749809265137
-1.677812337875366 -1.548489928245544 -3.902538776397705
-1.677812457084656 0.718728721141815 -4.526683807373047
-0.928903818130493 -1.677812337875366 -4.075220108032227
-0.156876042485237 -1.677812576293945 -0.515177071094513
0.327529668807983 -1.677812337875366 0.291868090629578
1.610747337341309 1.671231746673584 -3.038011550903320
1.646974802017212 -1.635004401206970 3.179708242416382
-1.378338098526001 -1.090887665748596 -4.793749809265137
-0.647567093372345 1.579691052436829 -4.793749809265137
-1.677812457084656 -1.278661370277405 -0.611726105213165
-1.677812337875366 -0.183353722095490 -0.830377876758575
0.141961216926575 1.677812337875366 -0.771037817001343
-1.677812337875366 -1.014428615570068 -1.183508515357971
-1.601432919502258 1.677812457084656 0.676503598690033
-1.492673158645630 1.677812457084656 0.252143174409866
0.477824449539185 1.671681761741638 -4.600850105285645
1.677812457084656 -0.366426587104797 -1.177932620048523
-1.345495223999023 -1.677812457084656 4.283722877502441
-1.677812576293945 0.187035679817200 2.765182971954346
-1.645103454589844 -1.636875629425049 0.036444686353207
0.541308343410492 1.677812576293945 4.568471431732178
-1.677812457084656 -0.878967285156250 1.743019580841064
-0.729598164558411 -1.677812457084656 3.863324165344238
0.407081276178360 -0.036797523498535 4.793749809265137
0.249980941414833 1.677812457084656 -1.520387053489685
-1.677812457084656 0.184491306543350 2.449365854263306
1.677812457084656 0.422761023044586 -2.880605697631836
0.145562544465065 1.677812457084656 -1.046844482421875
-1.017988324165344 1.677812457084656 1.077530622482300
1.677812457084656 -0.764148354530334 1.558603763580322
-0.399660915136337 1.677812457084656 -1.022452116012573
-1.336967229843140 1.677812337875366 4.069993972778320
1.677812576293945 -1.373793363571167 -3.149096488952637
-0.760063529014587 -1.677812457084656 2.994396209716797
0.304645955562592 -1.677812457084656 -0.490508496761322
1.677812457084656 1.125360488891602 -2.515115261077881
-0.674822866916656 -1.677812576293945 2.513415098190308
1.323675155639648 -1.677812457084656 -2.511446475982666
1.677812576293945 0.247229933738708 4.090097904205322
1.464406728744507 1.677812576293945 -3.839132785797119
-1.302204608917236 -1.677812457084656 0.477923512458801
-0.012805970385671 -1.677812457084656 -3.325828790664673
-1.677812337875366 1.328826308250427 0.419440507888794
-1.608005166053772 1.673974037170410 1.010707855224609
1.357714653015137 1.677812457084656 -3.391356706619263
0.653898596763611 1.677812337875366 -2.383048295974731
1.677812457084656 -0.500631332397461 2.688519001007080
-1.677812457084656 0.718762159347534 -4.181299209594727
1.066841363906860 -1.677812457084656 0.217324808239937
-0.918558597564697 1.618303418159485 -4.753359317779541
0.124092087149620 1.677812457084656 1.220297813415527
1.626584649085999 -1.655394315719604 -3.063843250274658
-1.357421040534973 -1.677812457084656 -1.296147823333740
1.677812457084656 -0.204345524311066 0.647576391696930
0.721187531948090 1.677812457084656 4.362087726593018
-1.677812337875366 0.361637294292450 0.091583177447319
0.193523913621902 -1.677812457084656 3.638288497924805
1.677812337875366 -0.922798633575439 4.404844284057617
1.677812457084656 -1.301004171371460 0.848157227039337
1.289477586746216 0.822505295276642 4.793749809265137
0.867614448070526 -1.677812337875366 1.495288372039795
0.561622560024261 -1.677812457084656 -1.338972091674805
-1.677812457084656 0.476627588272095 -4.336639404296875
1.286465048789978 -1.575114607810974 4.793749809265137
-0.318313807249069 -1.584547400474548 4.793749809265137
-1.609338164329529 -1.672640919685364 4.431012153625488
1.677812576293945 0.738664627075195 -2.333503007888794
1.677812457084656 0.653538227081299 -1.223356246948242
0.387052357196808 0.330162525177002 -4.793749809265137
-1.377165079116821 1.677812457084656 -0.005192185286433
-0.256107807159424 -1.677812576293945 3.146775007247925
-0.174020588397980 1.677812457084656 4.285971641540527
-1.508614659309387 -1.603998661041260 4.793749809265137
1.677812337875366 0.184889629483223 -3.748978853225708
-0.502741336822510 0.804470956325531 -4.793749809265137
0.537441015243530 -1.677812337875366 2.997381448745728
-1.677812457084656 0.800577342510223 0.374059021472931
-0.545958757400513 1.677812457084656 -2.156403303146362
0.492089837789536 -1.677812457084656 -0.672352552413940
-1.677812457084656 -1.373335838317871 0.562299251556396
-1.677812457084656 0.906481444835663 -2.419852256774902
1.677812457084656 1.198725938796997 3.345429658889771
1.086877584457397 1.677812457084656 3.868307590484619
0.264126747846603 -1.677812457084656 3.039503574371338
1.637129426002502 -0.944159984588623 4.699570655822754
-1.546897053718567 1.677812457084656 3.882874488830566
-1.677812457084656 1.561620354652405 -0.855295956134796
1.352790594100952 1.677812576293945 -0.766540527343750
0.284214735031128 1.677812576293945 -1.803732633590698
-1.380513191223145 -1.677812457084656 -4.393889427185059
-0.086750693619251 1.667226672172546 4.613578796386719
-1.677812457084656 -0.058150961995125 -3.070622920989990
-1.677812457084656 -0.238283738493919 -2.204103946685791
-1.677812457084656 -0.509586513042450 -0.847835183143616
-0.496495544910431 -1.677812457084656 0.810016930103302
1.677812337875366 -1.305485129356384 -3.425204038619995
-1.053913474082947 -1.677812457084656 2.506357192993164
0.716397702693939 1.677812457084656 2.207690715789795
-0.013861141167581 0.672664046287537 4.793749809265137
1.465567350387573 0.348241746425629 -4.793750286102295
-1.677812457084656 -1.056719303131104 1.487198948860168
0.225531592965126 -1.677812337875366 4.378441810607910
1.677812337875366 -0.524055004119873 2.947526216506958
-1.677812576293945 -0.805655479431152 -4.214194297790527
1.620942950248718 -1.661036252975464 -2.624287128448486
0.456170707941055 1.677812457084656 1.953909397125244
-0.441652894020081 -1.520681738853455 -4.793749809265137
-1.677812576293945 1.120271325111389 3.608688592910767
1.374147653579712 -0.800860345363617 4.793749809265137
-1.677812457084656 -0.029168317094445 -0.572263479232788
-0.228540614247322 -1.677812457084656 -3.577573776245117
-1.205826282501221 -1.677812337875366 2.234573841094971
-1.392527580261230 0.674978196620941 4.793749809265137
1.677812457084656 -1.438164949417114 -1.764155149459839
0.598576545715332 -1.459581613540649 4.793749809265137
-0.877790033817291 1.677812337875366 1.740419864654541
-1.677812457084656 -0.003899686271325 2.192088842391968
-0.491402387619019 -1.677812337875366 1.873761653900146
-0.395292848348618 1.677812337875366 0.350993007421494
-1.096003293991089 -1.677812337875366 4.015235900878906
-1.677812576293945 0.323778122663498 -4.553758144378662
-1.677812457084656 -1.311136007308960 -1.888897418975830
-0.635832130908966 1.608027935028076 4.782717227935791
-1.677812457084656 0.573925375938416 3.370414257049561
0.514059305191040 -1.677812457084656 -4.199521064758301
1.132465839385986 1.677812457084656 2.133636236190796
-1.027443766593933 -0.505410790443420 4.793749809265137
1.677812457084656 -1.238474607467651 -0.384112298488617
-1.677812576293945 -0.414555519819260 -3.902705430984497
-1.476611018180847 -1.677812457084656 2.286936044692993
-0.760336399078369 1.677812457084656 0.372261941432953
1.559591412544250 1.677812457084656 3.626307487487793
-1.677812457084656 0.627396345138550 -2.458571910858154
-0.487615525722504 -1.677812576293945 2.323649406433105
1.329392552375793 1.677812576293945 -3.130542278289795
-1.677812457084656 -1.013417363166809 -4.056847572326660
1.677812457084656 -0.552663326263428 -1.417632222175598
-0.430181145668030 -1.677812457084656 -1.932438015937805
0.750000476837158 1.677812337875366 -4.034615993499756
-1.389919400215149 -1.677812457084656 0.732463836669922
-1.677812457084656 0.301981985569000 3.357005357742310
1.677812457084656 0.290167540311813 3.306130170822144
1.647536277770996 0.160787701606750 -4.669836521148682
-0.645305216312408 0.474895954132080 -4.793749809265137
-0.156131550669670 -1.677812457084656 1.403340458869934
1.677812576293945 0.110430195927620 1.497780323028564
-1.677812337875366 -1.391236186027527 -4.344987869262695
1.677812337875366 0.433663815259933 2.295976161956787
-0.518850862979889 1.677812457084656 2.737237215042114
1.677812457084656 0.389870345592499 2.601184844970703
-1.677812457084656 -0.325665771961212 4.235430717468262
1.677812576293945 0.817134022712708 0.483615547418594
1.677812457084656 -0.163351461291313 1.282628774642944
-1.603325486183167 -1.677812457084656 4.131318092346191
1.677812457084656 1.339109063148499 1.234068989753723
-0.902284383773804 1.672904014587402 4.597357749938965
1.677812576293945 0.128123030066490 2.048928737640381
0.362299293279648 1.677812457084656 -4.035419464111328
-0.049212861806154 -1.677812457084656 -1.509561538696289
-1.677812457084656 -1.237210512161255 1.836983084678650
-1.677812457084656 -0.024581383913755 -3.419707536697388
1.677812337875366 1.090480208396912 -3.602885007858276
-0.568134903907776 1.677812457084656 1.096359729766846
-1.117334365844727 1.677812457084656 -2.350362539291382
-0.895270526409149 -1.677812337875366 -1.323271036148071
1.040476679801941 -1.677812457084656 -4.388863086700439
1.038211822509766 -1.677812337875366 -0.930844783782959
-1.622768163681030 1.659210920333862 2.405123710632324
1.677812457084656 0.683507382869720 -2.882962226867676
1.638481259346008 1.643497824668884 0.100850902497768
-1.677812457084656 -1.434672832489014 4.286361217498779
1.677812457084656 1.471842646598816 -1.748581290245056
1.677812337875366 -0.180412694811821 -0.672045290470123
1.677812457084656 -0.766485035419464 2.842403173446655
1.677812457084656 -0.406708359718323 4.486375331878662
-1.677812337875366 1.299129009246826 -1.854171276092529
0.659641027450562 0.822802066802979 -4.793749809265137
-1.677812457084656 -0.563287138938904 -2.943575382232666
-0.888046860694885 1.677812457084656 -2.490107297897339
-0.794247031211853 1.677812457084656 -1.857729911804199
1.677812337875366 1.436775207519531 3.463034391403198
1.677812457084656 0.667962074279785 -3.525990962982178
1.386861681938171 -1.677812457084656 -0.389691591262817
-1.677812576293945 0.777537763118744 -2.698354005813599
1.677812457084656 -0.166281953454018 -4.507989883422852
1.677812457084656 0.242979645729065 -0.272761821746826
0.049936454743147 1.598275542259216 -4.793749809265137
-1.677812337875366 0.070347465574741 1.631360173225403
-1.677812337875366 -0.810205459594727 2.567024230957031
0.619853615760803 0.209325850009918 4.793749809265137
1.388403892517090 -1.677812457084656 -2.776087522506714
1.242940187454224 1.677812337875366 -0.072753801941872
-1.677812576293945 -0.125884339213371 0.098106712102890
-1.397583842277527 0.429993063211441 -4.793749809265137
-1.677812337875366 1.593068122863770 -2.140204906463623
0.142800435423851 1.677812457084656 -4.181714057922363
-1.677812457084656 -0.008358038030565 2.967319250106812
1.677812576293945 -0.498861372470856 -3.793076276779175
-1.677812457084656 -1.015582799911499 -1.612222433090210
-1.677812457084656 -0.831079959869385 -0.859674394130707
-1.677812576293945 1.078329205513000 0.221634075045586
-0.615049779415131 1.677812457084656 -2.483146190643311
1.677812457084656 -0.169469282031059 -2.404809236526489
1.205219268798828 1.575261473655701 4.793749809265137
-1.677812457084656 -0.568825304508209 0.460765212774277
-1.677812457084656 -0.765333771705627 2.023938655853271
1.677812576293945 0.686623811721802 -0.215189903974533
0.527479767799377 1.677812576293945 -1.928708076477051
0.935319542884827 -1.677812457084656 2.528840541839600
-1.418764591217041 1.677812337875366 -2.396489620208740
-1.151733875274658 0.786603510379791 -4.793749809265137
0.448785901069641 -1.677812457084656 1.517766714096069
1.065825581550598 1.598552703857422 -4.793749809265137
-0.373004585504532 1.606003999710083 4.788499832153320
1.677812457084656 -0.998410344123840 2.403437376022339
-1.662833809852600 -1.619145274162292 -0.468090236186981
1.386019110679626 -1.677812457084656 1.350730419158936
1.375167608261108 1.677812337875366 -2.578595161437988
-0.974803090095520 -1.677812337875366 1.038714408874512
-1.677812457084656 -1.210640311241150 2.108799695968628
1.107355356216431 -1.677812337875366 3.946846961975098
-0.148662716150284 -0.345176726579666 -4.793749809265137
-0.471519231796265 -1.677812457084656 1.609134674072266
-0.908036231994629 0.938410818576813 4.793749809265137
-1.677812457084656 0.361691594123840 3.629737615585327
1.631194949150085 -1.650784015655518 -3.615347862243652
1.002668857574463 1.677812457084656 -3.554006099700928
-1.677812457084656 0.743720889091492 1.174509763717651
1.677812457084656 -0.592461466789246 -2.931973934173584
-1.438634634017944 1.677812337875366 -3.243499994277954
1.073990464210510 1.677812576293945 3.037146091461182
-1.677812337875366 0.230455070734024 -0.596077859401703
1.677812576293945 -0.006818430963904 3.116734027862549
0.500027656555176 1.677812457084656 3.713803768157959
-1.646470665931702 -0.037594702094793 4.672881603240967
-1.677812457084656 0.358718037605286 -3.035001277923584
0.376608371734619 1.677812576293945 -0.285322368144989
-1.677812457084656 -0.602016925811768 4.086813449859619
1.677812457084656 1.603481411933899 1.484976291656494
1.677812457084656 0.425998806953430 3.619179248809814
1.087977170944214 1.677812337875366 4.156483650207520
1.677812457084656 0.512437820434570 -3.737274408340454
-1.677812337875366 -1.305752396583557 -1.279237508773804
-1.150234222412109 1.677812457084656 3.268899917602539
1.677812337875366 -0.102293848991394 -0.963639080524445
1.677812457084656 -0.468039661645889 1.995693922042847
1.430617213249207 1.677812457084656 2.055977344512939
-1.049943327903748 1.354330420494080 -4.793749809265137
0.636184990406036 -1.677812457084656 -0.237559020519257
-1.677812457084656 -1.190952777862549 1.059915542602539
0.483764022588730 1.677812576293945 4.040640354156494
-0.702517449855804 1.677812457084656 -4.104661464691162
0.587174773216248 1.677812337875366 2.800696849822998
0.921326875686646 -1.677812457084656 -3.832426548004150
-0.371711134910583 -0.998978793621063 -4.793749809265137
-1.253930330276489 -1.677812457084656 1.050047159194946
0.226769685745239 1.677812337875366 -3.514511823654175
-0.916763842105865 1.677812457084656 -3.498302936553955
1.621339082717896 1.660640239715576 -2.420357465744019
1.677812576293945 1.339745044708252 0.139019787311554
-1.677812337875366 1.262222886085510 -0.589399218559265
-1.677812337875366 0.923434615135193 3.436639308929443
1.677812457084656 0.962643682956696 -3.368123292922974
-0.280222117900848 1.677812457084656 1.301910996437073
-1.677812576293945 1.444631218910217 0.840154409408569
0.988561928272247 1.677812457084656 -4.156541824340820
1.677812457084656 -0.736858248710632 3.241054058074951
-1.677812457084656 -0.411647319793701 -2.408554792404175
-1.156761288642883 -1.677812337875366 1.854225397109985
1.155417203903198 0.552238404750824 4.793749809265137
1.677812457084656 -1.023070335388184 3.682841777801514
1.397829532623291 1.677812457084656 3.964876651763916
1.227059841156006 -1.677812457084656 -3.007278442382812
-0.564518332481384 -1.677812457084656 -2.842705011367798
0.094535626471043 -0.030380176380277 4.793749809265137
1.677812457084656 -0.750559389591217 0.412497937679291
1.668201088905334 -1.245784759521484 4.610794067382812
-1.654967427253723 1.627011775970459 -0.392559587955475
-0.142435759305954 -1.677812457084656 -3.905194282531738
-1.573958635330200 -1.677812337875366 3.689385175704956
0.549834489822388 1.677812457084656 -1.669922232627869
1.677812337875366 -0.250556796789169 0.367750525474548
1.289055109024048 1.677812457084656 -1.040522336959839
0.715227186679840 1.677812576293945 -3.039215564727783
-1.186342597007751 -1.677812576293945 -1.513323783874512
-1.102060079574585 -1.677812457084656 3.740184783935547
0.711315393447876 1.677812576293945 -0.005108075216413
-1.677812457084656 -0.987611293792725 -2.632606506347656
-1.677812457084656 -1.161304354667664 -3.336548805236816
1.677812457084656 0.480289638042450 4.577181816101074
-0.868888378143311 -1.677812457084656 -3.711388587951660
-0.754858374595642 -0.311221748590469 4.793749809265137
0.906843066215515 1.677812457084656 3.365017414093018
-1.677812576293945 -0.073551461100578 -1.510220170021057
0.530610680580139 -0.276495605707169 4.793750286102295
0.217228949069977 -0.551103293895721 -4.793749809265137
0.075181372463703 -1.677812457084656 3.223585128784180
-1.677812457084656 0.046332035213709 -0.135918870568275
-0.693729460239410 1.677812457084656 4.165072441101074
0.285224348306656 -1.677812457084656 -3.902907609939575
1.489611387252808 -1.345050573348999 4.793749809265137
-1.349334597587585 -1.677812337875366 -2.207312345504761
-1.677812457084656 0.304480671882629 -0.179735139012337
-1.677812457084656 0.223821178078651 0.675072312355042
1.560421586036682 1.274075031280518 -4.793749809265137
1.677812576293945 -0.479999363422394 -1.739181041717529
-1.677812576293945 1.458201408386230 0.084880635142326
-0.577314913272858 1.677812337875366 3.389781951904297
-0.132520526647568 -0.644188582897186 -4.793749809265137
-1.677812337875366 0.632993578910828 -1.486638903617859
0.846638083457947 1.677812457084656 2.690277338027954
1.677812337875366 -0.539661645889282 -0.813398361206055
1.194017767906189 -1.677812457084656 0.903671383857727
1.677812457084656 0.108556970953941 3.561772584915161
1.677812576293945 1.376062154769897 1.626177072525024
-1.330802559852600 1.677812457084656 -3.989963531494141
1.677812337875366 0.134861677885056 -0.032138425856829
1.348122119903564 1.677812457084656 2.927052259445190
-0.975678443908691 -0.400620818138123 -4.793749809265137
-1.596945524215698 1.673351645469666 4.596078395843506
-1.286875128746033 1.677812457084656 -0.304465830326080
1.677812576293945 -0.964561283588409 -1.800788640975952
-1.677812457084656 -0.523330926895142 -2.000598669052124
-1.284599661827087 0.423665493726730 4.793749809265137
1.677812457084656 -0.463298141956329 4.142984390258789
0.331179738044739 1.677812457084656 4.351320266723633
0.639165163040161 1.042190313339233 4.793749809265137
-1.677812337875366 -0.177631318569183 1.503539323806763
-1.677812337875366 -0.913622617721558 -3.487174987792969
0.817730844020844 -1.677812337875366 -0.692460536956787
1.231497764587402 -1.677812576293945 -0.142194822430611
-0.499306946992874 1.677812576293945 -1.689266443252563
-1.677812337875366 0.447765350341797 -3.352356910705566
1.677812457084656 -0.782137632369995 2.222213745117188
1.677812337875366 -0.244984149932861 -3.991856575012207
-1.677812337875366 -1.456416010856628 2.324481487274170
0.716442584991455 -0.158742547035217 -4.793749809265137
0.169337987899780 -1.677812457084656 -2.548986911773682
1.677812457084656 1.238689422607422 -0.450421750545502
0.265386343002319 -1.180355191230774 -4.793749809265137
-1.677812457084656 -1.096262931823730 0.442849993705750
1.677812337875366 -1.309494495391846 3.987974643707275
0.031185310333967 1.453673720359802 4.793749809265137
-1.677812457084656 -0.688774406909943 0.691198110580444
1.677812576293945 0.845515489578247 4.281173229217529
0.787501692771912 0.659507870674133 4.793749809265137
1.677812457084656 -0.995627641677856 0.324221193790436
-0.251605689525604 -1.677812337875366 2.185656309127808
-0.500120937824249 1.677812457084656 -4.328335762023926
-0.141857028007507 1.677812457084656 -2.498324155807495
-1.677812576293945 -1.382376074790955 -2.809719562530518
-0.853219270706177 1.677812337875366 -1.285202383995056
0.167937368154526 1.677812337875366 0.668015837669373
-1.595885515213013 1.677812337875366 -4.007887840270996
1.677812337875366 -1.468415021896362 2.600866794586182
1.677812337875366 -0.741979122161865 3.525527238845825
-1.677812576293945 1.244096636772156 -0.865961253643036
-0.284705549478531 1.677812576293945 3.514214038848877
1.677812576293945 -1.439851284027100 -2.790754318237305
-1.677812457084656 -1.277185440063477 -4.080961227416992
-1.050027608871460 -1.677812576293945 1.313602924346924
1.288912296295166 1.677812576293945 1.065603494644165
1.126066207885742 0.538040161132812 -4.793749809265137
-0.259805381298065 -1.677812457084656 0.658005356788635
1.506108045578003 -0.499017536640167 -4.793749809265137
-1.361217141151428 1.677812457084656 0.929161727428436
-1.647769451141357 1.634209632873535 -1.863889694213867
0.715886592864990 -1.677812457084656 3.947134971618652
1.378571748733521 -1.677812337875366 -0.739620149135590
-1.677812457084656 -0.029706919565797 -2.424014568328857
0.535084664821625 -1.677812337875366 -1.636278390884399
-1.677812457084656 0.093789935112000 3.698313951492310
1.677812457084656 -1.563468217849731 0.068958669900894
0.095322862267494 -1.677812457084656 -1.816535115242004
0.867049336433411 -0.499033510684967 -4.793749809265137
1.677812576293945 0.111162729561329 1.776383876800537
0.116114370524883 -1.677812576293945 2.355964422225952
-0.169307380914688 1.677812457084656 -4.302296638488770
-1.677812457084656 -0.595923900604248 -4.400924205780029
-0.546318173408508 -1.677812457084656 3.183933019638062
1.677812457084656 0.484199196100235 -1.004714250564575
-1.065205216407776 1.677812576293945 0.807101428508759
-1.677812337875366 0.715424895286560 -0.887215375900269
-1.375547170639038 1.677812457084656 -1.410161972045898
0.858725070953369 -1.343058109283447 -4.793749809265137
-0.180198296904564 0.696140170097351 -4.793749809265137
0.246262818574905 -1.677812576293945 2.047160148620605
1.677812337875366 -0.502606272697449 -2.014708757400513
-1.677812457084656 0.879661619663239 2.409051179885864
-1.507931232452393 -1.188264608383179 4.793749809265137
1.677812457084656 0.769259452819824 -4.370982170104980
-1.677812337875366 0.455863326787949 1.691772699356079
1.677812457084656 -0.464069932699203 1.334161996841431
-1.677812457084656 -0.632584214210510 -3.246382713317871
1.677812457084656 -0.218206539750099 1.669027209281921
-0.818887114524841 -1.677812457084656 -2.409532070159912
-0.657720744609833 0.439232051372528 4.793749809265137
-0.323565989732742 -1.677812457084656 -4.172469615936279
1.362182855606079 -1.677812457084656 3.345613002777100
-1.677812457084656 0.031275477260351 0.311931580305099
0.065135449171066 0.356201291084290 -4.793749809265137
-1.677812337875366 -1.149020791053772 4.256479263305664
1.677812457084656 -1.046235680580139 -3.452737092971802
-1.677812457084656 -0.687469780445099 -2.223762750625610
-1.677812337875366 0.305663228034973 3.047144651412964
-1.677812457084656 -1.443143010139465 -1.057886004447937
1.677812457084656 1.287398815155029 3.686631917953491
0.651495695114136 -1.677812337875366 -2.168091297149658
-1.677812457084656 -0.976891160011292 2.330283641815186
-1.677812337875366 -1.391879439353943 3.465017318725586
-0.164877593517303 1.677812457084656 3.750508069992065
-0.241683721542358 1.677812457084656 -0.502767443656921
-0.658111214637756 -1.677812337875366 -2.182425737380981
0.122604601085186 -1.677812457084656 -2.837389469146729
-1.677812337875366 -0.876900434494019 4.401453971862793
-0.222784489393234 -1.677812457084656 2.472174406051636
-0.871876180171967 0.623414933681488 -4.793749332427979
1.677812457084656 -0.760533928871155 -1.611910462379456
-1.677812457084656 1.160602688789368 0.638529658317566
-1.677812576293945 0.535189568996429 2.918408870697021
-1.677812457084656 -1.065559625625610 0.091362982988358
1.532655000686646 -1.656685352325439 -4.643696308135986
0.120332732796669 1.677812576293945 -3.159579038619995
0.795334935188293 -0.492307990789413 4.793749809265137
-1.658608436584473 -1.623370766639709 -4.169982910156250
0.228878527879715 -1.677812457084656 -0.986999630928040
1.677812337875366 1.130485415458679 -0.692057490348816
0.131802380084991 1.677812457084656 -0.453542679548264
0.152219966053963 0.473045200109482 4.793749809265137
-1.677812457084656 -0.418249756097794 3.828169107437134
-0.196311503648758 -1.677812457084656 -1.774921298027039
-1.677812457084656 -0.001669295132160 1.913010835647583
0.389923959970474 1.677812457084656 0.486512362957001
-0.832029104232788 0.901101350784302 -4.793749809265137
1.677812457084656 1.262042760848999 -1.448432922363281
-0.634885132312775 1.677812576293945 -1.138926386833191
1.677812337875366 0.263930410146713 -4.134790897369385
-1.677812457084656 -0.348038673400879 -0.048060167580843
1.003002882003784 1.677812457084656 0.895365297794342
-1.290521144866943 1.677812337875366 1.595769762992859
-0.155634954571724 -1.677812457084656 -2.520709514617920
0.946406483650208 1.365329265594482 -4.793749809265137
0.710024595260620 -1.677812457084656 -3.097626686096191
-0.588300704956055 -1.677812457084656 -3.148563623428345
1.677812457084656 1.134508371353149 1.783890366554260
-1.677812457084656 0.168022051453590 -1.733075380325317
-0.076973378658295 -0.049996893852949 -4.793749809265137
1.677812457084656 -0.565580189228058 -3.197498798370361
-0.431722402572632 -1.677812576293945 -2.330365657806396
1.032199025154114 -1.677812337875366 3.682069301605225
0.586116909980774 1.677812457084656 0.660327792167664
1.220648169517517 1.677812457084656 0.436148464679718
-0.339005440473557 1.677812337875366 -3.472215175628662
1.677812457084656 -0.492935746908188 -4.264806747436523
0.425690412521362 -0.325416564941406 -4.793749809265137
1.614675045013428 -1.667304277420044 -1.919983148574829
1.677812576293945 1.366006016731262 -3.503905773162842
-0.858334779739380 -1.677812457084656 -0.323081284761429
-1.119828820228577 1.677812457084656 -1.578567385673523
-0.204902082681656 -1.677812576293945 4.493032932281494
-1.677812457084656 1.338002681732178 3.285000324249268
1.677812576293945 -0.419088780879974 -2.715934514999390
0.719288229942322 -0.052769716829062 4.793749809265137
-1.349066495895386 -0.282848596572876 -4.793749809265137
1.677812457084656 0.603378295898438 -0.765229105949402
0.942458212375641 1.677812457084656 -0.133312016725540
1.010163545608521 -1.677812576293945 3.399049520492554
1.677812457084656 -1.603470444679260 1.042471051216125
-0.438428878784180 -1.677812457084656 4.189423561096191
-1.677812457084656 1.465731382369995 -3.142467737197876
1.677812457084656 -0.787892341613770 -4.368294715881348
1.677812576293945 0.835111975669861 2.348731517791748
-1.147689104080200 1.677812457084656 -1.838935136795044
1.677812337875366 -1.153455495834351 -4.422430038452148
1.677812576293945 -0.177307859063148 3.362573623657227
-0.687116622924805 1.677812457084656 2.996987342834473
1.677812576293945 0.244380921125412 0.275810301303864
-1.071801185607910 -1.013737559318542 -4.793749809265137
-1.299514293670654 1.677812457084656 3.538703680038452
0.870921850204468 -1.037107586860657 -4.793749809265137
-1.586969137191772 1.677812337875366 4.294423103332520
-1.598406434059143 1.677812457084656 2.725007057189941
1.300693035125732 1.677812576293945 -2.866401672363281
0.174373239278793 1.204247355461121 -4.793749809265137
1.281282544136047 1.677812457084656 -4.069104194641113
-0.124749682843685 -1.677812576293945 4.172659397125244
-0.170748949050903 1.677812576293945 -4.014656543731689
1.677812576293945 -0.534300684928894 0.674646854400635
-0.728430747985840 1.677812457084656 -0.172259554266930
0.707127213478088 1.677812457084656 1.820460677146912
-1.677812457084656 0.815922379493713 -3.768521785736084
-1.160841941833496 -1.677812457084656 -2.405705213546753
-0.194062590599060 -1.677812337875366 3.424905061721802
-1.677812457084656 1.151959538459778 1.826496720314026
1.677812337875366 0.714093029499054 -4.090125083923340
1.372515439987183 1.677812576293945 1.420361399650574
-1.677812337875366 -0.402014315128326 0.804293990135193
1.309230446815491 -0.300125986337662 4.793749809265137
1.677812457084656 -0.336962461471558 3.154041290283203
-1.677812337875366 0.865339994430542 0.715973496437073
-0.551241934299469 1.677812576293945 -1.427122831344604
1.349582672119141 -1.118184566497803 4.793749809265137
-0.331989288330078 1.677812457084656 -3.785222768783569
-1.110853195190430 1.677812457084656 -3.290375947952271
1.677812576293945 1.455767750740051 0.963517189025879
-0.890502274036407 -1.677812457084656 2.297821283340454
-1.677812337875366 0.236417829990387 -3.630454063415527
1.677812576293945 -0.661047041416168 -0.468032151460648
1.677812457084656 1.029849529266357 3.626113414764404
1.677812457084656 0.762374818325043 1.310726165771484
1.598154902458191 1.677812457084656 2.261755466461182
1.677812457084656 -1.116182565689087 -0.970082581043243
1.677812457084656 1.097783327102661 4.449988842010498
-0.720663547515869 1.677812337875366 3.679653167724609
1.275462865829468 -0.041155640035868 4.793749809265137
-1.311290144920349 -1.677812457084656 -0.945151329040527
-1.677812457084656 -1.381232619285583 0.158705294132233
-1.677812457084656 -0.017813736572862 4.064637660980225
1.677812457084656 -1.306626081466675 1.224946498870850
-1.620650053024292 -1.661329030990601 -2.661075353622437
1.677812576293945 0.285178720951080 -3.143550872802734
0.555793881416321 1.677812457084656 -4.323003768920898
0.152461886405945 -1.677812576293945 4.024940490722656
1.225488662719727 -1.677812576293945 1.868747591972351
-0.642837405204773 -1.677812337875366 -1.422385215759277
-1.472528457641602 1.677812576293945 -1.035263657569885
-0.142966061830521 -1.335030317306519 4.793749809265137
1.677812337875366 1.400798082351685 -2.353725671768188
-1.677812457084656 -1.520053625106812 -3.376486301422119
1.354056000709534 1.677812457084656 -1.624023914337158
-0.137456148862839 1.677812457084656 -0.180481866002083
-1.677812457084656 0.430416077375412 1.051587820053101
0.532468914985657 0.479802846908569 4.793749809265137
1.677812576293945 -0.202982932329178 4.143476486206055
-0.360158145427704 -1.677812457084656 -1.424595832824707
0.717889428138733 -1.677812457084656 -1.851435065269470
1.677812337875366 0.693559765815735 -2.613675117492676
-0.258884996175766 1.677812576293945 0.645706951618195
1.444502115249634 0.686886906623840 -4.793749809265137
1.677812457084656 0.876406788825989 1.552335858345032
-0.688772737979889 -0.575056791305542 4.793749809265137
-0.763328313827515 1.677812337875366 1.480772733688354
-1.677812457084656 -0.753395617008209 -2.501019954681396
1.385351419448853 1.677812337875366 -0.491313159465790
-0.408297657966614 1.108199596405029 4.793749809265137
-1.677812576293945 -1.144207119941711 2.848181962966919
0.618961751461029 -1.677812457084656 4.230671405792236
-1.407492876052856 0.126835629343987 4.793749809265137
-0.782365322113037 -1.677812457084656 4.121522903442383
-0.359312653541565 -1.677812576293945 3.778173446655273
-1.677812337875366 0.797225236892700 2.926937103271484
-1.677812457084656 -0.294365882873535 -2.882572889328003
-1.090352296829224 1.677812576293945 2.225761651992798
1.677812337875366 -1.157901287078857 1.542899966239929
0.328002661466599 -0.560263991355896 4.793749809265137
-0.168426543474197 1.677812457084656 -0.768955171108246
1.677812576293945 0.424679219722748 -4.371689796447754
-1.677812337875366 1.329529762268066 -3.379689216613770
1.677812457084656 0.695371210575104 2.595104694366455
1.677812457084656 -0.470552086830139 1.022164344787598
1.056195974349976 -0.263741552829742 -4.793749809265137
1.677812457084656 -1.322693347930908 -2.368225574493408
1.677812457084656 -0.471533596515656 3.632150173187256
-1.677812576293945 -0.789033055305481 2.866986274719238
1.677812337875366 -0.848197579383850 -2.097541570663452
1.306886672973633 1.677812457084656 3.300976514816284
1.231671214103699 1.677812457084656 -3.696947336196899
-1.677812457084656 -0.608163237571716 -0.586130023002625
-1.369948267936707 0.980237007141113 4.793749809265137
1.677812337875366 1.427031755447388 0.643533289432526
-1.654729247093201 -1.158626914024353 -4.649285793304443
0.864801049232483 1.677812457084656 -1.577637791633606
-1.119784712791443 -1.677812457084656 0.665539622306824
1.677812457084656 -0.559003233909607 1.725618362426758
-1.677812457084656 1.321639537811279 -0.262694299221039
0.985763549804688 1.677812337875366 -1.226714611053467
0.957762658596039 1.677812457084656 -3.214668512344360
1.677812457084656 1.399064660072327 4.433495521545410
-1.677812457084656 0.797869086265564 4.371865272521973
0.096292726695538 1.677812457084656 3.181178092956543
1.677812457084656 -0.289014965295792 -3.048935174942017
1.677812457084656 1.004448652267456 3.139898777008057
-1.677812337875366 0.743925213813782 4.004931926727295
-0.325674891471863 -1.677812337875366 2.773687362670898
-1.414108395576477 -1.677812457084656 -1.932475090026855
-1.677812576293945 0.154284283518791 -3.954292297363281
-1.467331767082214 -1.677812457084656 -0.170739278197289
1.677812457084656 0.414014041423798 0.905001938343048
-1.109619498252869 -1.677812337875366 -2.943727493286133
0.815636157989502 -0.992063522338867 4.793749809265137
1.287214159965515 1.296063423156738 -4.793749809265137
1.677812457084656 0.703582286834717 -2.025285720825195
1.677812337875366 1.264739274978638 0.421268373727798
1.677812337875366 -0.359555840492249 0.038580682128668
0.077734403312206 1.677812457084656 -1.308562397956848
-0.712739229202271 -0.541847050189972 -4.793749809265137
-0.319212615489960 -1.677812576293945 -3.267300367355347
-0.748499631881714 -1.677812457084656 3.375623226165771
-0.678224265575409 1.073259353637695 4.793749809265137
1.677812457084656 0.511135458946228 -1.782841563224792
1.677812457084656 0.254150360822678 1.249378681182861
1.677812457084656 -0.813580155372620 1.846758604049683
-1.152047634124756 1.226387500762939 4.793749809265137
0.291976243257523 1.491184115409851 -4.793750286102295
1.677812337875366 0.965777099132538 2.008592605590820
-1.400066494941711 1.677812576293945 -2.050527095794678
1.677812576293945 0.857596158981323 -3.080629587173462
0.086436219513416 1.677812457084656 2.026022195816040
0.506760179996490 -1.350691318511963 -4.793749809265137
-0.325769335031509 1.677812457084656 2.218485355377197
1.677812457084656 -1.045268654823303 4.055075645446777
-0.415964514017105 -0.044151388108730 4.793749809265137
0.197134464979172 1.677812337875366 0.287471234798431
0.760801553726196 -1.677812457084656 3.193032264709473
-0.502003669738770 1.677812576293945 4.488412380218506
-0.234615013003349 1.677812457084656 -1.688018321990967
-1.677812457084656 -1.151837944984436 3.695516109466553
0.880101621150970 0.409064948558807 4.793749809265137
-0.179758518934250 -1.677812457084656 -2.969513177871704
0.463388502597809 1.677812457084656 -2.585896015167236
-0.413342148065567 1.677812337875366 1.920299768447876
1.677812576293945 0.725538849830627 0.191683933138847
0.141292363405228 1.677812457084656 1.710598230361938
1.677812337875366 -0.809929192066193 -3.625267267227173
1.677812457084656 1.369213104248047 -3.829583883285522
1.677812457084656 0.960998415946960 -1.689437985420227
-1.677812457084656 -0.110040977597237 -3.958042621612549
-0.828266084194183 -1.677812576293945 2.738616466522217
-0.287225782871246 1.677812457084656 -1.393303990364075
-1.105831742286682 0.467223167419434 -4.793749809265137
1.165712714195251 -0.598750710487366 -4.793749809265137
0.348830789327621 -1.677812457084656 1.264194369316101
0.864524066448212 -1.677812337875366 -0.089958235621452
-1.659289717674255 0.801289498806000 4.636255741119385
1.677812457084656 0.513007998466492 3.945236206054688
0.975337684154510 1.677812576293945 -2.332755565643311
1.677812457084656 1.056821942329407 2.501596450805664
0.174700021743774 1.677812457084656 -2.429687738418579
-1.264946699142456 1.677812457084656 2.714848995208740
-1.677812576293945 -0.225112631917000 3.297061681747437
-1.677812457084656 0.499070763587952 4.469324111938477
1.251747727394104 -1.677812457084656 -1.468609452247620
1.677812457084656 -0.612760603427887 -2.389059305191040
-1.677812576293945 0.490319490432739 -1.779924154281616
1.153786897659302 1.069930076599121 4.793749809265137
-1.298963665962219 1.677812457084656 1.926317930221558
-1.677812457084656 -1.119783282279968 -2.856255292892456
0.972925066947937 1.677812576293945 0.520471692085266
0.736386299133301 1.677812576293945 -3.391653060913086
-0.325610131025314 -1.133587598800659 4.793749809265137
-1.677812457084656 0.863183140754700 -0.189513877034187
1.677812457084656 1.008074641227722 -4.518326759338379
-1.613726496696472 0.578100860118866 -4.766436100006104
-0.584331750869751 1.677812576293945 0.655473351478577
0.346007704734802 1.677812337875366 2.215669870376587
1.677812337875366 0.449780791997910 4.300435066223145
-0.803979992866516 1.677812457084656 -3.127275943756104
-0.842134952545166 -1.677812337875366 -2.751083135604858
1.677812576293945 -1.185373544692993 -1.627820730209351
-1.677812457084656 0.185160070657730 -2.570387840270996
1.459194421768188 -1.677812576293945 0.173547685146332
1.677812337875366 -1.236127376556396 -3.677553415298462
1.065127849578857 -0.852565228939056 4.793749809265137
-0.114437535405159 0.416114240884781 4.793750286102295
1.115087270736694 1.677812457084656 -0.330822914838791
0.648159801959991 -1.677812576293945 -2.815568685531616
-0.887498378753662 1.316642761230469 4.793749809265137
1.295003294944763 -1.677812457084656 3.050141334533691
1.677812457084656 -0.957655072212219 -1.242938518524170
-1.677812457084656 -1.153996467590332 3.310627937316895
0.661552488803864 1.677812457084656 1.296281576156616
0.282902121543884 0.704885542392731 4.793749809265137
1.677812457084656 -0.510738432407379 0.268388599157333
1.335209131240845 1.288405299186707 4.793749809265137
0.741455256938934 -1.677812337875366 -4.398124694824219
0.289857119321823 1.677812457084656 0.004505912307650
-1.677812457084656 -0.242661893367767 1.784982204437256
0.458685934543610 -0.999146282672882 -4.793750286102295
0.135259553790092 -0.247400164604187 -4.793749809265137
-0.985300481319427 1.677812337875366 3.053944349288940
-0.473014056682587 -1.677812576293945 3.458263397216797
1.677812457084656 -1.057776093482971 1.984320044517517
1.677812457084656 1.000985622406006 0.292807906866074
-0.432961940765381 1.677812337875366 -4.036407470703125
-1.338773250579834 -0.969022274017334 4.793749809265137
-1.677812457084656 0.448932230472565 -3.893129825592041
0.441646128892899 1.222554206848145 -4.793750286102295
-1.043684959411621 0.188318789005280 4.793749809265137
1.278018474578857 1.677812457084656 3.606739997863770
-1.677812337875366 -0.473124444484711 -2.679661273956299
1.677812457084656 -0.757540941238403 1.075754880905151
-0.570578932762146 1.337371468544006 4.793749809265137
0.790824472904205 1.677812457084656 -2.034730911254883
1.141771674156189 -1.677812457084656 -3.271738052368164
0.365696668624878 -1.677812337875366 -2.732003211975098
1.677812337875366 0.644150018692017 -1.500112414360046
-1.677812457084656 1.116330981254578 2.712270975112915
-1.313210964202881 1.677812457084656 4.400421142578125
1.677812457084656 0.462094843387604 -2.216204404830933
1.677812457084656 0.444745779037476 0.041576575487852
1.305530667304993 1.677812457084656 2.352360248565674
1.677812576293945 1.309027552604675 -0.896813631057739
0.140325129032135 -1.677812337875366 1.547495603561401
-0.376354128122330 0.462357640266418 -4.793749809265137
-1.677812457084656 1.079885244369507 -3.765813589096069
-0.066099151968956 -1.677812576293945 -2.023692369461060
1.018165111541748 -1.677812457084656 3.111355066299438
0.492985993623734 1.677812457084656 -3.511035442352295
-1.677812337875366 1.108801245689392 3.063596248626709
-1.091103792190552 1.677812457084656 1.406660079956055
