# This PCD file was generated using the MATLAB® pcwrite function
# from Computer Vision Toolbox®.
# .PCD v.7 - Point Cloud Data file format
VERSION .7
FIELDS x y z
SIZE 8 8 8
TYPE F F F
COUNT 1 1 1
WIDTH 827
HEIGHT 1
VIEWPOINT 0 0 0 1 0 0 0
POINTS 827
DATA ascii
-24.443973541259766 4.531126022338867 -13.059082031250000
-21.611820220947266 12.172784805297852 -50.508781433105469
24.774322509765625 1.786428213119507 54.526763916015625
-24.802867889404297 0.463600337505341 -32.343322753906250
-22.614753723144531 10.348456382751465 39.253784179687500
18.110931396484375 -16.759082794189453 -59.999996185302734
-23.949348449707031 -6.457566261291504 2.566057205200195
-24.718784332275391 -3.460821151733398 15.569883346557617
-23.240127563476562 9.210907936096191 31.977275848388672
-21.088016510009766 13.125586509704590 -24.104454040527344
-19.323598861694336 15.654979705810547 -50.024368286132812
-2.006289243698120 18.229768753051758 -60.000000000000000
18.036134719848633 17.269271850585938 -7.206388473510742
-20.983306884765625 -13.316049575805664 -25.442504882812500
-24.802867889404297 3.074464559555054 54.959732055664062
17.576503753662109 -10.978710174560547 -60.000000000000000
-3.476078271865845 24.633211135864258 -56.228141784667969
-2.426217794418335 24.699262619018555 4.772081375122070
20.763635635375977 13.618468284606934 -14.889022827148438
22.204387664794922 11.294412612915039 -17.993211746215820
-24.802867889404297 -2.706879377365112 21.771896362304688
19.751178741455078 -6.351918220520020 -60.000000000000000
13.677362442016602 -20.875162124633789 -46.672584533691406
-14.995064735412598 19.859714508056641 -10.772130966186523
24.499399185180664 3.962671041488647 -14.028940200805664
19.833951950073242 -14.898069381713867 47.386894226074219
14.257128715515137 -20.395538330078125 21.770696640014648
21.834438323974609 -12.144637107849121 9.170822143554688
18.004875183105469 17.295131683349609 12.695552825927734
24.756473541259766 -1.927722692489624 -13.233877182006836
5.615337371826172 24.178934097290039 55.635887145996094
24.788410186767578 1.674904823303223 -25.008001327514648
24.054803848266602 -6.620794296264648 16.096265792846680
-3.756141662597656 14.674888610839844 60.000000000000000
-0.018240809440613 24.850759506225586 -53.649253845214844
-10.012209892272949 22.826114654541016 -23.279014587402344
-14.233825683593750 -20.342809677124023 14.287668228149414
21.638803482055664 -12.413902282714844 -46.138603210449219
-8.467859268188477 -23.327903747558594 -41.603866577148438
-1.029872298240662 24.787113189697266 -11.574280738830566
19.277143478393555 15.664447784423828 49.258552551269531
-22.101322174072266 11.282384872436523 -7.134284973144531
15.586970329284668 -4.243954181671143 -60.000000000000000
-13.134012222290039 -21.040771484375000 7.288757324218750
-21.130399703979492 -13.048488616943359 -51.543731689453125
9.880838394165039 22.762151718139648 -55.661521911621094
-19.226585388183594 -15.758287429809570 -28.533985137939453
-0.829456984996796 24.799722671508789 -0.661139965057373
-20.601438522338867 14.010663986206055 -39.511421203613281
-7.664746284484863 23.588848114013672 26.836168289184570
2.450331926345825 -24.782690048217773 13.201446533203125
19.842809677124023 -14.885874748229980 27.033426284790039
-10.974897384643555 14.159706115722656 -60.000000000000000
-23.819053649902344 6.965031147003174 9.781379699707031
2.347512006759644 24.802305221557617 -25.613080978393555
-24.802867889404297 -2.862112045288086 -11.485404968261719
-5.501368522644043 2.232808113098145 -60.000000000000000
-21.665138244628906 12.075803756713867 23.318059921264648
-13.700990676879883 -20.680957794189453 -35.259803771972656
-13.478777885437012 -20.821977615356445 55.611068725585938
19.008934020996094 16.033607482910156 9.151222229003906
-20.100206375122070 14.827976226806641 21.298555374145508
-8.837259292602539 23.207878112792969 7.895551681518555
-2.035922527313232 -24.723815917968750 -37.108512878417969
-15.225765228271484 19.713306427001953 49.853958129882812
-19.899482727050781 13.381197929382324 59.999996185302734
-22.051483154296875 11.373043060302734 -18.575111389160156
-24.050489425659180 -6.063642501831055 -6.797668457031250
12.440501213073730 21.557666778564453 -29.080797195434570
24.848400115966797 -1.200049281120300 42.776687622070312
-24.802867889404297 -2.886790275573730 47.558124542236328
8.713551521301270 -15.787301063537598 -59.999996185302734
15.221408843994141 -19.597816467285156 -20.161516189575195
-1.936945199966431 -24.730045318603516 -41.842109680175781
-17.723779678344727 -17.358613967895508 -43.051227569580078
20.251983642578125 -14.322695732116699 -11.035902023315430
-24.802867889404297 1.972668290138245 -56.410102844238281
-19.224834442138672 -15.760150909423828 -39.407737731933594
-24.802867889404297 1.620339155197144 -46.572311401367188
-22.648241043090820 10.287543296813965 50.662750244140625
11.759297370910645 -0.925627470016479 60.000000000000000
13.585157394409180 20.951442718505859 52.312248229980469
15.936859130859375 -19.005943298339844 43.769725799560547
3.428410291671753 -24.596113204956055 6.198407173156738
9.340745925903320 23.016298294067383 -34.426895141601562
21.245866775512695 12.954734802246094 -29.704063415527344
22.269733428955078 11.129371643066406 -6.046325683593750
24.663042068481445 -2.667298078536987 54.660236358642578
0.167494773864746 -24.862443923950195 -18.574617385864258
-4.874899387359619 -3.289558887481689 60.000000000000000
-24.101905822753906 5.863386631011963 21.806785583496094
17.432819366455078 -17.768377304077148 -52.602066040039062
24.703121185302734 -2.350027084350586 -52.399375915527344
-11.289190292358398 -22.211532592773438 -16.459838867187500
7.544809341430664 -23.810867309570312 32.986930847167969
-22.765453338623047 10.074333190917969 -55.544761657714844
-15.524051666259766 19.524007797241211 -4.061637878417969
-15.838825225830078 4.367764949798584 -60.000000000000000
15.284467697143555 19.545650482177734 14.460281372070312
-15.097755432128906 -19.794544219970703 42.822357177734375
-24.802867889404297 -2.327597379684448 31.075386047363281
1.988646626472473 24.870761871337891 54.290985107421875
19.481687545776367 4.813671588897705 -60.000000000000000
7.065855026245117 -23.902231216430664 8.237480163574219
-24.635948181152344 3.783436536788940 -7.605920791625977
19.251279830932617 -15.700046539306641 3.944033622741699
-1.376505970954895 -24.765304565429688 57.482654571533203
24.236312866210938 -6.045216083526611 -1.124996185302734
-24.802867889404297 -1.067099452018738 -36.276069641113281
5.912450790405273 24.122255325317383 4.543611526489258
-19.412961959838867 15.559818267822266 52.189464569091797
-9.574241638183594 22.968418121337891 -4.290468215942383
-20.233322143554688 -14.680265426635742 -9.681652069091797
20.237546920776367 -1.262486934661865 -59.999996185302734
-24.802867889404297 3.098523139953613 -35.641380310058594
23.059185028076172 9.135450363159180 55.737960815429688
4.126908302307129 24.462865829467773 26.186769485473633
21.264446258544922 12.929162979125977 -55.630039215087891
-19.784500122070312 -5.862572669982910 -60.000000000000000
-19.966476440429688 3.506981372833252 60.000000000000000
18.884525299072266 -16.204843521118164 9.212292671203613
-21.861921310424805 11.717855453491211 29.389982223510742
-15.980031013488770 19.215517044067383 55.522079467773438
-5.768793582916260 -24.204881668090820 -38.123451232910156
23.180690765380859 -8.828556060791016 -20.716201782226562
-1.203336477279663 -24.776199340820312 -55.911861419677734
19.246393203735352 15.706770896911621 20.661743164062500
-24.802865982055664 -2.793993473052979 36.133003234863281
12.325239181518555 -21.611904144287109 52.344848632812500
15.315913200378418 19.519634246826172 5.903627395629883
-4.126680374145508 -7.252972602844238 60.000000000000000
14.339606285095215 -20.327304840087891 17.736198425292969
-22.328329086303711 -9.313408851623535 -60.000000000000000
11.179898262023926 -4.982485294342041 -60.000000000000000
-1.494604349136353 -24.757871627807617 -4.260833740234375
-3.635044813156128 -24.623208999633789 8.455167770385742
9.439012527465820 22.970058441162109 6.766792297363281
24.267877578735352 -5.795349121093750 -30.416234970092773
22.064071655273438 11.648813247680664 24.651746749877930
24.272180557250977 5.761296749114990 34.023998260498047
-14.259028434753418 -20.113140106201172 60.000003814697266
-22.840713500976562 -9.937438964843750 3.585811614990234
21.940177917480469 -11.961731910705566 24.881586074829102
6.017861366271973 -24.102148056030273 28.303140640258789
3.255512714385986 24.629095077514648 -50.091640472412109
-18.071924209594727 16.987876892089844 35.844501495361328
-2.787614583969116 -24.676525115966797 0.274616241455078
-24.146827697753906 -5.688437938690186 12.309347152709961
12.411865234375000 -21.571140289306641 34.082176208496094
-10.544595718383789 -21.989555358886719 60.000000000000000
-10.859371185302734 -22.484302520751953 25.327993392944336
22.450986862182617 -9.642942428588867 -60.000003814697266
-5.929074287414551 18.127429962158203 -60.000000000000000
24.878004074096680 -0.965695738792419 24.980131149291992
6.744145393371582 -3.006376266479492 60.000000000000000
23.519796371459961 -7.972074031829834 45.511611938476562
22.178062438964844 11.360906600952148 -39.412063598632812
-21.217144012451172 -12.890700340270996 41.254196166992188
24.766672134399414 1.846972227096558 9.378420829772949
8.850131988525391 -22.966073989868164 -60.000000000000000
-23.629735946655273 -7.702372550964355 40.788516998291016
-19.385637283325195 15.588914871215820 -45.242248535156250
-15.202081680297852 19.728336334228516 37.885101318359375
7.096935272216797 23.896301269531250 13.714569091796875
-12.907190322875977 -21.184717178344727 1.711174011230469
24.723476409912109 2.188911199569702 -2.356525421142578
-5.364415168762207 -24.336273193359375 -55.506961822509766
-21.970596313476562 -11.520174980163574 37.447982788085938
22.955698013305664 9.396823883056641 10.815290451049805
-6.591560840606689 23.937549591064453 -36.071048736572266
-0.800388634204865 24.801551818847656 -34.453868865966797
14.459286689758301 20.228298187255859 -19.996427536010742
0.744197547435760 24.898727416992188 -38.432521820068359
14.193817138671875 -20.447914123535156 -39.429546356201172
11.073987960815430 22.221424102783203 60.000000000000000
23.069410324096680 9.109618186950684 -9.192752838134766
24.268669128417969 -5.789107322692871 -45.080017089843750
-11.595418930053711 -4.961194992065430 60.000000000000000
20.198015213012695 -14.396978378295898 -26.589288711547852
-23.726371765136719 -7.326004505157471 56.320793151855469
-1.483196258544922 -24.758590698242188 30.369216918945312
-24.802867889404297 2.688900709152222 -25.900127410888672
-21.531019210815430 -12.319764137268066 -12.833231925964355
11.127006530761719 22.175748825073242 42.630386352539062
24.757225036621094 -1.921761274337769 -19.502679824829102
-5.527917861938477 24.283147811889648 56.696868896484375
12.073740005493164 -21.730251312255859 -42.238254547119141
-19.971023559570312 -14.965542793273926 -16.358821868896484
24.666334152221680 -2.641252040863037 32.275279998779297
-5.978176116943359 4.220291137695312 60.000000000000000
10.293553352355957 -22.567943572998047 -47.610885620117188
-1.490870237350464 24.758110046386719 11.014432907104492
-19.555786132812500 -15.407725334167480 38.878704071044922
-19.410642623901367 15.562287330627441 -11.353225708007812
-12.059748649597168 21.722520828247070 24.869071960449219
18.815231323242188 -16.300216674804688 13.568300247192383
16.597026824951172 -12.425642967224121 60.000000000000000
-24.802867889404297 1.540673732757568 29.528083801269531
6.511153697967529 -15.616655349731445 60.000000000000000
-21.303104400634766 12.734339714050293 -1.325440406799316
11.105421066284180 -22.185905456542969 37.586250305175781
-17.099617004394531 18.023279190063477 20.246892929077148
2.726053953170776 15.134503364562988 -60.000000000000000
-19.287284851074219 -15.693649291992188 10.293160438537598
0.845259547233582 24.905086517333984 59.542186737060547
20.852205276489258 13.406705856323242 60.000000000000000
-1.088446736335754 -0.930992126464844 59.999996185302734
1.639440655708313 24.937376022338867 -43.056587219238281
6.533009052276611 24.003879547119141 51.534393310546875
24.833190917968750 1.320434808731079 58.329368591308594
2.697742462158203 -24.735494613647461 -21.863857269287109
-9.959980010986328 22.843086242675781 50.312881469726562
-21.889814376831055 -11.667118072509766 21.310022354125977
14.747217178344727 -19.990102767944336 55.546035766601562
-16.005962371826172 -19.187904357910156 9.859066009521484
-16.642774581909180 -18.509767532348633 22.395500183105469
-13.303192138671875 -20.933408737182617 -21.871406555175781
-7.135819911956787 18.086639404296875 60.000000000000000
-8.735145568847656 -23.241056442260742 3.482421875000000
-1.746556878089905 24.742023468017578 51.977142333984375
-23.323104858398438 8.896626472473145 24.348720550537109
12.397599220275879 -21.441564559936523 -60.000000000000000
23.040637969970703 9.182290077209473 19.440521240234375
-23.822195053100586 -6.952794551849365 30.802049636840820
-16.810472488403320 -18.331186294555664 -38.104450225830078
-14.072094917297363 -20.445446014404297 25.415840148925781
19.530612945556641 9.619789123535156 59.999996185302734
5.986128807067871 -24.108200073242188 24.378496170043945
-14.608081817626953 -20.105298995971680 36.125846862792969
4.979199409484863 24.300281524658203 -40.569137573242188
-13.132843971252441 21.041513442993164 -22.220100402832031
20.636404037475586 13.793587684631348 -8.071783065795898
23.372383117675781 -8.344398498535156 -51.057800292968750
6.570097446441650 -23.996803283691406 -7.135925292968750
-10.982843399047852 -22.405944824218750 29.418411254882812
24.961473464965820 0.304974436759949 34.895156860351562
-9.785608291625977 17.753601074218750 -60.000000000000000
-13.181627273559570 21.010555267333984 -26.129795074462891
-23.637144088745117 -7.673524856567383 16.608543395996094
11.538120269775391 21.982294082641602 -22.681583404541016
-9.909833908081055 -22.859376907348633 47.749900817871094
24.735849380493164 2.090977907180786 46.281433105468750
23.639333724975586 -7.216239452362061 59.999996185302734
10.770444869995117 7.980340957641602 -60.000000000000000
-5.195355892181396 24.391202926635742 -48.116199493408203
-11.633893966674805 21.992774963378906 -29.898166656494141
-1.831924200057983 -24.736650466918945 34.441452026367188
-7.139548301696777 -23.759498596191406 -2.429967880249023
-4.730771541595459 24.542158126831055 -51.990890502929688
4.227295398712158 24.443716049194336 38.064666748046875
-24.177139282226562 5.570384502410889 -18.797369003295898
24.529678344726562 -3.722973823547363 -4.024565696716309
-24.051834106445312 6.058418273925781 -43.977958679199219
-20.000932693481445 14.543273925781250 -60.000000000000000
23.609077453613281 7.746577262878418 3.114937782287598
6.802976608276367 -23.952377319335938 -3.417228698730469
14.786954879760742 -19.957227706909180 26.723100662231445
20.093408584594727 14.540956497192383 -37.273872375488281
-21.213218688964844 -12.897838592529297 7.977760314941406
21.343700408935547 12.433151245117188 -60.000000000000000
-24.096738815307617 -5.883521080017090 -37.249961853027344
9.636632919311523 22.877065658569336 -51.715114593505859
0.566733181476593 -20.124700546264648 -59.999996185302734
24.319412231445312 5.387411594390869 -8.493644714355469
24.763351440429688 -1.873257517814636 47.772697448730469
-16.424356460571289 18.742357254028320 -19.481830596923828
-19.276599884033203 15.705025672912598 -34.701087951660156
-23.464975357055664 8.344069480895996 -51.387275695800781
16.593515396118164 18.462711334228516 -46.033603668212891
23.398633956909180 -8.278094291687012 26.390594482421875
-21.439970016479492 12.485382080078125 -33.469963073730469
-0.267159581184387 24.835100173950195 24.897428512573242
23.495092391967773 8.034465789794922 51.420471191406250
-15.887684822082520 -19.293239593505859 -19.674942016601562
-24.802867889404297 -2.588626384735107 55.040782928466797
-19.594694137573242 -15.366291046142578 14.182396888732910
-22.237037658691406 -11.035520553588867 -55.787837982177734
-17.039098739624023 -18.087724685668945 46.969974517822266
0.642381131649017 -14.757633209228516 -60.000000000000000
-6.576016426086426 -23.942600250244141 -23.136455535888672
-23.593521118164062 7.843425750732422 -15.249451637268066
-19.145298004150391 15.844848632812500 -55.524917602539062
-19.948841094970703 14.989160537719727 -20.813652038574219
13.952441215515137 -20.647596359252930 -27.328876495361328
6.218920230865479 18.470134735107422 60.000003814697266
-24.232559204101562 5.354536056518555 28.503112792968750
22.606109619140625 10.279783248901367 -49.932029724121094
14.895304679870605 19.867593765258789 -50.506797790527344
-24.000553131103516 -6.258131027221680 20.796234130859375
-8.657099723815918 23.266414642333984 40.377319335937500
17.159231185913086 16.167182922363281 -59.999996185302734
23.313116073608398 -8.494085311889648 41.813877105712891
24.740028381347656 2.057882547378540 -21.212026596069336
8.101194381713867 -23.599590301513672 -53.830253601074219
-24.802867889404297 -3.003595829010010 -45.242691040039062
18.552967071533203 -16.661193847656250 -33.412914276123047
-8.503997802734375 23.316162109375000 -55.434108734130859
17.641212463378906 17.595981597900391 -20.623584747314453
7.536309719085693 0.688040971755981 60.000000000000000
-17.353866577148438 17.752532958984375 42.340759277343750
-15.171921730041504 -19.747474670410156 -26.384433746337891
3.175177574157715 -1.815986990928650 60.000000000000000
-0.914099633693695 -24.794397354125977 -52.119369506835938
-15.043181419372559 -19.829175949096680 -6.982210159301758
-24.802869796752930 0.387481778860092 -9.417194366455078
24.284507751464844 -5.663712501525879 -7.347278594970703
24.731668472290039 2.124071836471558 13.271340370178223
-19.886367797851562 -15.055688858032227 35.132633209228516
-23.768604278564453 3.123219251632690 -60.000000000000000
23.231779098510742 8.699520111083984 46.822875976562500
24.729059219360352 2.144723892211914 39.709320068359375
21.814493179321289 12.172087669372559 44.315666198730469
-14.759417533874512 -20.009258270263672 51.638275146484375
12.792636871337891 -21.391963958740234 41.168457031250000
2.545111417770386 19.449111938476562 -60.000000000000000
14.631436347961426 20.085884094238281 29.917808532714844
1.953126907348633 24.877538681030273 50.459793090820312
22.160337448120117 -11.405675888061523 49.011829376220703
23.065710067749023 9.118962287902832 -29.389600753784180
22.897449493408203 9.543941497802734 35.964614868164062
5.727025508880615 24.157629013061523 33.489391326904297
24.294349670410156 -5.194881439208984 -60.000000000000000
-2.839639663696289 7.503571510314941 -60.000000000000000
14.226152420043945 -20.421165466308594 -0.655151367187500
-13.898207664489746 -20.555799484252930 -39.085594177246094
-16.169620513916016 -19.013626098632812 -49.158691406250000
-20.139928817749023 -12.546967506408691 60.000000000000000
19.351522445678711 -15.562076568603516 0.201027870178223
14.239549636840820 -20.410079956054688 -56.301757812500000
-21.462442398071289 12.444505691528320 55.298671722412109
-24.802867889404297 2.924546241760254 2.324480056762695
-0.967301845550537 -2.434565544128418 -60.000000000000000
21.580680847167969 -12.493902206420898 1.262653350830078
11.465170860290527 22.016622543334961 15.438550949096680
-24.802867889404297 -2.263142347335815 -49.408912658691406
2.585963010787964 -1.111068725585938 -60.000000000000000
-6.413227558135986 13.680548667907715 -60.000003814697266
-8.808218002319336 6.657877445220947 60.000000000000000
12.628701210021973 21.469106674194336 46.626003265380859
-16.828971862792969 -18.311487197875977 54.542434692382812
24.245313644409180 5.973969459533691 12.489044189453125
4.148767471313477 -24.458694458007812 -27.250240325927734
-19.106986999511719 10.384263992309570 -60.000000000000000
-10.750148773193359 -16.079561233520508 -60.000000000000000
-2.549945354461670 -22.273218154907227 -60.000000000000000
17.553075790405273 17.668893814086914 -40.825500488281250
-11.469875335693359 -22.096866607666016 43.771408081054688
21.233669281005859 -12.971525192260742 -2.834499359130859
-8.521407127380371 -12.384098052978516 60.000000000000000
-18.973573684692383 16.027717590332031 17.677137374877930
8.175952911376953 23.564409255981445 39.360305786132812
14.072961807250977 20.547893524169922 18.310041427612305
19.318359375000000 15.607722282409668 56.476806640625000
-16.771997451782227 18.372158050537109 -7.575002670288086
-18.713483810424805 -16.304687500000000 -35.100006103515625
12.176026344299316 -21.682117462158203 -8.583740234375000
3.292467117309570 24.622043609619141 18.056669235229492
-5.681971549987793 24.233095169067383 52.885520935058594
-22.160305023193359 -11.175100326538086 12.960731506347656
-22.855640411376953 -0.642474472522736 -60.000000000000000
-4.231573104858398 24.585676193237305 -26.815317153930664
2.939154624938965 24.689441680908203 1.998765945434570
14.955792427062988 -19.143642425537109 60.000000000000000
-24.802867889404297 2.355553388595581 43.434333801269531
-23.003135681152344 9.641992568969727 -3.472980499267578
-24.029743194580078 6.144449710845947 -39.184013366699219
9.949858665466309 22.729673385620117 53.750724792480469
2.354186058044434 24.801033020019531 -7.170928955078125
-24.802869796752930 2.335628986358643 59.419570922851562
-11.411324501037598 -22.197025299072266 -60.000003814697266
6.817676544189453 12.973905563354492 -60.000000000000000
-12.224376678466797 21.618043899536133 -50.265296936035156
-24.548791885375977 -4.122894287109375 51.427719116210938
-19.841571807861328 15.103393554687500 32.594421386718750
20.023283004760742 14.637475013732910 52.804641723632812
-10.570837974548340 22.644603729248047 46.382484436035156
-4.219757080078125 -24.586421966552734 55.008148193359375
-15.955170631408691 -19.241991043090820 0.222799301147461
-24.587739944458008 -3.971197605133057 -25.658054351806641
24.816513061523438 -1.452439427375793 6.194969177246094
6.265834808349609 24.054843902587891 -26.633689880371094
-19.324901580810547 -15.653592109680176 -20.213090896606445
-11.809453010559082 21.881362915039062 36.837646484375000
21.164258956909180 -13.067057609558105 -35.290817260742188
-21.812841415405273 11.807126998901367 -27.742910385131836
-24.802867889404297 0.713967502117157 -13.497683525085449
-12.492219924926758 6.677114486694336 -60.000000000000000
0.564412236213684 -24.887416839599609 -14.300468444824219
-19.246711730957031 -15.736854553222656 51.774608612060547
16.124919891357422 18.850368499755859 -37.512695312500000
-24.802867889404297 1.336853981018066 -1.770358085632324
-7.933938026428223 -23.501384735107422 -51.384826660156250
-22.965402603149414 9.710628509521484 -45.554862976074219
22.660026550292969 -10.143605232238770 21.687820434570312
-0.149193763732910 24.842519760131836 38.881141662597656
0.498859107494354 -4.731518268585205 60.000000000000000
-3.170966148376465 -6.804105758666992 -60.000000000000000
-1.457982778549194 24.760179519653320 -15.706151008605957
-21.216489791870117 -12.891887664794922 55.330688476562500
19.889438629150391 14.821695327758789 25.456943511962891
20.576751708984375 -13.875691413879395 -20.396202087402344
11.102470397949219 -22.187295913696289 57.951755523681641
-14.499949455261230 -15.648408889770508 60.000000000000000
24.841712951660156 -1.252970218658447 20.664390563964844
0.118832349777222 -24.859382629394531 -45.384021759033203
-11.222724914550781 -22.253713607788086 -55.777381896972656
-20.033599853515625 -14.898906707763672 30.828594207763672
-5.803588867187500 24.193578720092773 -22.568895339965820
-7.064435958862305 22.697658538818359 60.000000000000000
17.465991973876953 -17.740936279296875 -40.134429931640625
17.114166259765625 18.031991958618164 -1.206129074096680
13.801584243774414 -20.772396087646484 14.004852294921875
-24.802867889404297 -0.701893806457520 -28.028320312500000
-3.375406265258789 22.063632965087891 -59.999996185302734
1.906130552291870 -24.886503219604492 26.015865325927734
19.740818023681641 -15.026256561279297 17.457643508911133
2.668630123138428 24.741048812866211 -13.791786193847656
19.908750534057617 -4.399306297302246 60.000000000000000
24.448270797729492 -4.367394924163818 -48.618041992187500
-23.772045135498047 7.148113727569580 14.156916618347168
-24.802867889404297 2.425747871398926 -42.169754028320312
-8.084511756896973 -7.671449184417725 60.000000000000000
-21.610023498535156 -12.176054000854492 -47.714622497558594
16.129354476928711 18.846696853637695 41.484390258789062
14.388974189758301 -20.286464691162109 -34.697528839111328
24.788217544555664 1.676431059837341 -10.466739654541016
-17.069585800170898 -18.055257797241211 -23.351612091064453
-22.135597229003906 -11.220039367675781 -17.497581481933594
-10.313843727111816 10.926888465881348 60.000000000000000
-24.328857421875000 -4.979482650756836 -52.002967834472656
-11.237880706787109 22.244092941284180 -59.078659057617188
24.307647705078125 -5.480547904968262 49.304309844970703
-17.647117614746094 -17.440250396728516 -58.399658203125000
19.286663055419922 -15.651344299316406 43.458282470703125
-1.697055339813232 11.137642860412598 -60.000000000000000
10.407073974609375 18.208574295043945 60.000000000000000
-13.980314254760742 -10.924810409545898 -60.000000000000000
-6.892835140228271 23.839660644531250 17.778451919555664
-8.542768478393555 23.303564071655273 -27.925594329833984
24.584239959716797 -3.291091918945312 38.284530639648438
24.204532623291016 -6.242625236511230 33.947570800781250
-23.922576904296875 -6.561837196350098 36.925186157226562
-5.838754653930664 -24.182151794433594 27.742574691772461
-21.413063049316406 -12.534322738647461 45.060779571533203
4.440074920654297 24.403127670288086 -3.612827301025391
24.662790298461914 2.669291496276855 50.764526367187500
19.028656005859375 16.006462097167969 43.490051269531250
-22.021375656127930 -11.427809715270996 16.935745239257812
-24.802865982055664 2.161447048187256 39.581195831298828
-14.094545364379883 18.930931091308594 -60.000000000000000
-24.399976730346680 -4.702482700347900 6.958474159240723
24.285491943359375 5.655934810638428 -55.079658508300781
-23.607431411743164 7.789243698120117 55.080234527587891
23.611616134643555 -7.740164279937744 30.168781280517578
-4.829973220825195 -2.952759742736816 -60.000000000000000
-16.656105041503906 18.495569229125977 -44.914096832275391
24.248476028442383 -5.948927879333496 -34.834732055664062
-6.010136127471924 -24.126462936401367 -34.256271362304688
-6.415108680725098 11.103198051452637 60.000003814697266
2.560782432556152 2.992996454238892 -60.000000000000000
21.190641403198242 -13.030745506286621 -7.645225524902344
-21.494197845458984 -12.386742591857910 -43.982513427734375
-24.802869796752930 1.167978048324585 51.294204711914062
-13.377546310424805 16.761404037475586 60.000000000000000
13.216606140136719 21.192459106445312 -9.005495071411133
-23.118120193481445 -9.432834625244141 -50.973423004150391
-24.157527923583984 -5.646764278411865 -19.041954040527344
2.210837602615356 -24.828376770019531 -42.078128814697266
8.476926803588867 -23.422782897949219 -38.451683044433594
18.204908370971680 17.129650115966797 -29.609527587890625
-15.327602386474609 19.648677825927734 24.603811264038086
-19.343559265136719 15.633724212646484 7.458889007568359
10.408242225646973 -22.513973236083984 12.722776412963867
7.824960708618164 -11.875644683837891 -60.000000000000000
21.990070343017578 11.835720062255859 14.406398773193359
-7.634478569030762 -22.099773406982422 -60.000000000000000
24.343374252319336 5.197747230529785 -33.443473815917969
-5.042004108428955 -24.441032409667969 -5.560972213745117
-19.844717025756836 -15.100044250488281 18.143508911132812
-7.623772144317627 -5.682004928588867 -60.000000000000000
6.377857685089111 24.033473968505859 -22.568164825439453
-23.623535156250000 -7.726523399353027 -27.605916976928711
22.344936370849609 10.939434051513672 -12.363082885742188
-5.987934112548828 24.133680343627930 -31.764530181884766
11.097351074218750 7.724628448486328 60.000000000000000
4.337625503540039 14.700069427490234 60.000000000000000
-24.164461135864258 -5.619759559631348 24.939033508300781
16.652263641357422 18.414110183715820 21.118438720703125
12.180251121520996 21.680130004882812 -47.240787506103516
2.934982776641846 -24.690238952636719 54.649971008300781
1.287867903709412 -13.139457702636719 60.000000000000000
24.280553817749023 5.695026397705078 54.937606811523438
-16.498443603515625 18.663465499877930 -54.745075225830078
-8.177230834960938 23.422334671020508 30.659542083740234
3.091614961624146 -24.660358428955078 31.159942626953125
16.332893371582031 -18.678316116333008 -24.560548782348633
-1.570763826370239 3.418141841888428 60.000000000000000
-10.917121887207031 22.447652816772461 -14.652856826782227
23.818918228149414 7.216578483581543 -0.859251022338867
24.799001693725586 -1.591056585311890 -37.453414916992188
-16.996242523193359 -10.237921714782715 60.000000000000000
-8.504659652709961 -1.508748173713684 60.000003814697266
19.161170959472656 15.824068069458008 -3.831411361694336
-2.610725402832031 24.687652587890625 42.439651489257812
-19.149324417114258 15.840562820434570 27.405916213989258
1.142283797264099 24.923772811889648 42.624496459960938
13.576931953430176 20.958244323730469 37.620536804199219
24.440423965454102 -4.429512500762939 44.757408142089844
-21.667814254760742 12.070936203002930 35.265739440917969
-8.845338821411133 23.205253601074219 -51.412895202636719
-2.128101587295532 24.718017578125000 -41.308410644531250
4.969034671783447 -24.302223205566406 -31.149866104125977
-21.338327407836914 -12.670267105102539 50.642532348632812
16.482366561889648 18.554662704467773 58.955715179443359
13.975180625915527 -17.555721282958984 -60.000000000000000
-3.820310354232788 -24.611553192138672 -19.507871627807617
-21.359172821044922 -12.632352828979492 -38.322700500488281
-11.803279876708984 -21.885280609130859 17.755592346191406
22.851097106933594 9.661018371582031 -33.705490112304688
9.881694793701172 -22.761749267578125 5.847237586975098
-23.303329467773438 -8.973650932312012 -14.091482162475586
2.495638847351074 -16.950271606445312 60.000000000000000
-10.646142959594727 -22.619623184204102 -25.938879013061523
20.037532806396484 -14.617862701416016 57.106357574462891
-10.394109725952148 10.269392013549805 -60.000000000000000
3.457131862640381 -24.590633392333984 -47.124076843261719
-8.615552902221680 23.279914855957031 -46.555908203125000
-10.587510108947754 22.639186859130859 58.435562133789062
-16.446792602539062 -18.718467712402344 -15.015174865722656
7.013476371765137 23.912225723266602 28.727020263671875
-10.499380111694336 -22.667823791503906 11.614351272583008
12.205127716064453 21.668422698974609 10.765027999877930
8.973355293273926 23.189180374145508 -19.745635986328125
-9.746097564697266 22.912578582763672 -9.720832824707031
22.581407546997070 -10.342173576354980 -32.551811218261719
-17.264581680297852 17.847608566284180 3.828134536743164
15.290433883666992 19.540714263916016 33.952499389648438
-2.895327091217041 24.669746398925781 16.157518386840820
17.540737152099609 -8.102282524108887 60.000000000000000
14.885334014892578 7.345445156097412 60.000000000000000
-5.923144817352295 -24.154731750488281 59.984062194824219
-5.166982650756836 -24.400423049926758 3.331504821777344
-19.455781936645508 -15.514219284057617 1.757417678833008
-23.211650848388672 -9.262702941894531 8.919151306152344
-1.276134490966797 -24.771619796752930 -29.421449661254883
17.953893661499023 17.337308883666992 36.826057434082031
-4.941897392272949 -24.473558425903320 18.334342956542969
-0.680887997150421 24.809068679809570 -20.089128494262695
12.048032760620117 -21.742347717285156 8.726837158203125
-8.066406250000000 23.458343505859375 34.884475708007812
-24.126255035400391 -5.768567562103271 -42.061115264892578
-1.740430235862732 10.212268829345703 60.000000000000000
-1.783530712127686 -24.739696502685547 -9.248607635498047
-8.524549484252930 -23.309482574462891 18.915115356445312
-16.295207977294922 18.879884719848633 -23.328449249267578
22.984161376953125 9.324931144714355 27.814514160156250
19.653047561645508 -15.147062301635742 -42.130596160888672
-23.271877288818359 -9.096143722534180 -44.222702026367188
2.502860546112061 10.903316497802734 59.999996185302734
10.764021873474121 -15.603861808776855 60.000000000000000
17.396347045898438 17.798551559448242 2.913087844848633
15.271251678466797 19.556583404541016 -31.029211044311523
15.610107421875000 19.276256561279297 10.304018020629883
2.851732254028320 2.326729297637939 60.000000000000000
-9.007385253906250 -23.152601242065430 -12.082601547241211
-7.578680992126465 22.221405029296875 -60.000000000000000
13.392492294311523 -0.739973306655884 -60.000000000000000
-14.810283660888672 19.976978302001953 28.899919509887695
5.578927040100098 -24.185878753662109 16.491783142089844
1.863271236419678 -24.894680023193359 21.353109359741211
2.832968711853027 -24.709699630737305 50.793071746826172
11.394039154052734 22.050092697143555 22.367820739746094
-13.691355705261230 20.687072753906250 6.336534500122070
9.835939407348633 22.783279418945312 -0.451896667480469
-10.469929695129395 -22.677391052246094 -34.433692932128906
-9.883951187133789 14.979833602905273 60.000000000000000
19.727849960327148 15.044105529785156 -33.160793304443359
-13.872032165527344 -20.572410583496094 47.509857177734375
5.104242324829102 -24.276430130004883 44.303680419921875
21.456384658813477 12.664981842041016 -2.547275543212891
20.885749816894531 13.450393676757812 29.551605224609375
4.327546119689941 24.424591064453125 8.994514465332031
-21.315368652343750 12.712031364440918 -43.212203979492188
-17.219242095947266 -17.895889282226562 -54.222686767578125
-18.688789367675781 1.220283746719360 -60.000000000000000
-0.067897319793701 13.813608169555664 60.000003814697266
-10.978673934936523 22.408592224121094 4.315782546997070
24.825798034667969 -1.378945231437683 -1.072441101074219
-12.960824966430664 -21.150680541992188 40.032447814941406
-24.008853912353516 6.225810050964355 -28.341865539550781
24.479267120361328 -4.122042655944824 3.440645217895508
-6.212096691131592 24.060844421386719 -18.494274139404297
-5.056824207305908 24.436216354370117 7.749143600463867
22.851345062255859 -9.660392761230469 -1.499039649963379
-14.774130821228027 15.107623100280762 -60.000003814697266
-15.656702041625977 19.439823150634766 33.560722351074219
-0.521960914134979 -10.671327590942383 -60.000000000000000
17.386882781982422 -17.806381225585938 -29.050086975097656
24.310152053833008 -5.460709571838379 7.149415969848633
11.800683975219727 -21.858741760253906 -3.995418548583984
11.024248123168945 -22.224103927612305 16.675146102905273
23.164552688598633 6.710916996002197 59.999996185302734
9.738512992858887 -22.829124450683594 -14.914905548095703
24.810760498046875 -1.497994065284729 -7.856849670410156
23.592130661010742 7.789373397827148 42.446197509765625
3.246663808822632 -11.238709449768066 -60.000000000000000
-4.904166698455811 24.485816955566406 -1.499992370605469
12.080858230590820 -21.726902008056641 24.511194229125977
-20.361450195312500 14.447201728820801 14.162277221679688
24.349090576171875 5.152493953704834 -27.980361938476562
23.956268310546875 6.869669437408447 -37.901897430419922
-21.581359863281250 -12.228195190429688 -0.718545913696289
15.065912246704102 19.642049789428711 -60.000000000000000
-18.034000396728516 17.028261184692383 -15.449394226074219
5.028749465942383 24.290830612182617 -10.196000099182129
15.157859802246094 -19.650388717651367 9.958793640136719
10.113661766052246 3.540647983551025 60.000000000000000
-12.473600387573242 -10.926507949829102 60.000000000000000
7.641933441162109 -23.792339324951172 49.098426818847656
-16.890434265136719 18.246036529541016 15.042663574218750
0.364771425724030 21.152580261230469 60.000003814697266
-21.947097778320312 11.562920570373535 7.570432662963867
-24.339576721191406 4.937732219696045 50.984161376953125
-17.163352966308594 -17.955406188964844 15.401107788085938
13.909730911254883 20.682929992675781 -34.370414733886719
6.948055744171143 23.924703598022461 23.110599517822266
-24.802867889404297 -1.294875860214233 8.447334289550781
1.745261430740356 -24.917190551757812 1.922142028808594
11.034032821655273 -22.219499588012695 0.264707565307617
14.670396804809570 -20.053651809692383 31.469650268554688
-22.011611938476562 11.445569038391113 43.906555175781250
-13.636976242065430 5.701701641082764 60.000000000000000
-19.801712036132812 15.145841598510742 -4.086412429809570
-23.998655319213867 6.265527725219727 0.086695492267609
-19.036144256591797 -15.961087226867676 58.868820190429688
-10.195551872253418 22.766542434692383 -0.466588973999023
-15.344339370727539 10.636993408203125 -60.000000000000000
-9.599195480346680 22.960309982299805 54.644958496093750
-12.759355545043945 21.278537750244141 41.738922119140625
10.142514228820801 -8.698776245117188 -60.000000000000000
16.937828063964844 -18.177873611450195 51.096611022949219
-24.169210433959961 5.601258277893066 -32.296722412109375
9.129815101623535 -23.115554809570312 22.406309127807617
8.814308166503906 -1.234615564346313 -60.000000000000000
-10.203637123107910 -12.207033157348633 -60.000000000000000
17.125349044799805 18.022741317749023 28.055242538452148
-10.319317817687988 -22.726329803466797 -48.481906890869141
24.405082702636719 4.709269523620605 16.354637145996094
-15.206650733947754 -4.888842582702637 -60.000003814697266
-23.813026428222656 -6.988508224487305 -22.930278778076172
22.971364974975586 -9.357256889343262 52.523014068603516
-10.262203216552734 22.744884490966797 -18.764719009399414
22.056041717529297 -11.669097900390625 30.440200805664062
-6.586630821228027 23.939151763916016 11.447824478149414
-6.587701797485352 -23.938804626464844 -29.428180694580078
-23.143970489501953 -9.385815620422363 47.542640686035156
13.693979263305664 20.861413955688477 -13.948932647705078
10.687606811523438 2.878026485443115 -60.000000000000000
-5.872685909271240 24.171125411987305 47.028427124023438
-23.475704193115234 8.302292823791504 46.525505065917969
14.350168228149414 -13.770987510681152 -60.000000000000000
10.133633613586426 22.643196105957031 31.942398071289062
14.624212265014648 -8.416332244873047 -60.000000000000000
17.104082107543945 14.849100112915039 60.000000000000000
5.958849430084229 -4.420329093933105 -60.000000000000000
-6.302144050598145 -24.031587600708008 31.827095031738281
23.066726684570312 -9.116396903991699 37.678031921386719
7.675018787384033 -23.404356002807617 60.000000000000000
-15.076593399047852 19.807971954345703 -14.660682678222656
13.086132049560547 15.188766479492188 60.000000000000000
-22.214103698730469 11.077240943908691 15.699493408203125
5.825986862182617 24.138750076293945 46.857803344726562
-2.050117492675781 -16.341579437255859 60.000000000000000
6.392268180847168 24.030725479125977 -30.491521835327148
15.513792991638184 3.688062191009521 -60.000000000000000
-23.402990341186523 -8.585492134094238 52.541419982910156
5.157575130462646 -20.634258270263672 60.000003814697266
-10.628668785095215 -8.437271118164062 -60.000000000000000
-11.797866821289062 -21.888715744018555 -45.042259216308594
19.884059906005859 -14.829099655151367 52.303466796875000
7.395556926727295 -23.839338302612305 -22.649383544921875
24.214979171752930 6.214102745056152 37.867599487304688
16.723747253417969 18.354972839355469 52.836685180664062
11.593865394592285 21.956062316894531 -59.138626098632812
17.376272201538086 17.815158843994141 -53.565391540527344
24.132900238037109 6.423543453216553 8.276420593261719
-3.486631870269775 -24.632547378540039 13.819892883300781
19.934085845947266 14.760243415832520 5.570304870605469
6.317204475402832 24.045043945312500 42.807281494140625
24.554237365722656 -3.528587341308594 -26.896741867065430
3.383835554122925 -24.604616165161133 58.354274749755859
-2.695936203002930 18.451406478881836 59.999996185302734
6.422966480255127 9.023322105407715 -60.000000000000000
-1.946420550346375 24.729448318481445 -23.630249023437500
2.231473207473755 24.824440002441406 -32.049667358398438
8.867188453674316 14.744738578796387 60.000000000000000
-6.774708747863770 -23.878042221069336 22.917894363403320
6.412521839141846 -24.026863098144531 -12.763351440429688
21.918821334838867 12.015676498413086 39.125503540039062
-24.290117263793945 5.130365371704102 -3.699844360351562
-19.692708969116211 7.267535686492920 60.000003814697266
14.570447921752930 20.136337280273438 24.267395019531250
2.405233383178711 -8.811492919921875 60.000000000000000
9.271233558654785 -23.049009323120117 -10.574762344360352
10.249376296997070 22.588729858398438 -11.329141616821289
23.002746582031250 -9.277992248535156 -44.340549468994141
7.795906066894531 23.743247985839844 -6.211223602294922
-4.592031002044678 -24.562999725341797 -11.980663299560547
12.747026443481445 -21.413427352905273 -23.720109939575195
1.549824237823486 -24.949413299560547 -33.557907104492188
-13.701286315917969 20.680770874023438 13.494447708129883
17.174139022827148 -17.982376098632812 16.631706237792969
1.200718998908997 -21.701288223266602 60.000003814697266
10.690736770629883 -22.381044387817383 -18.916313171386719
10.184206962585449 -22.619396209716797 27.986587524414062
22.841075897216797 8.471935272216797 -60.000000000000000
-16.532394409179688 -18.627309799194336 30.295381546020508
16.721534729003906 -18.356803894042969 -48.725982666015625
23.626766204833984 7.701899051666260 -16.253273010253906
-2.399156093597412 -20.101770401000977 60.000000000000000
-22.950092315673828 -9.738479614257812 -34.307285308837891
23.221527099609375 -8.725415229797363 -5.094560623168945
7.982639789581299 22.354618072509766 -59.999996185302734
1.851499319076538 17.596225738525391 59.999996185302734
17.632814407348633 -17.602928161621094 28.542030334472656
-19.402835845947266 -6.276955127716064 60.000000000000000
7.080741405487061 -6.818085193634033 60.000000000000000
9.382873535156250 22.996479034423828 47.810886383056641
-23.276969909667969 -9.076308250427246 -9.338184356689453
24.118503570556641 -6.459915161132812 20.308988571166992
-1.056334733963013 -24.785448074340820 -23.058097839355469
15.426232337951660 19.428371429443359 -4.421287536621094
24.636890411376953 -2.874305725097656 -41.206314086914062
-20.888923645019531 13.487732887268066 -15.489363670349121
24.244211196899414 5.982694625854492 -50.488899230957031
18.300247192382812 -17.009031295776367 24.193878173828125
-1.852847814559937 -10.469860076904297 60.000000000000000
-24.802867889404297 -1.472523450851440 27.208913803100586
-9.140820503234863 -0.282623291015625 -60.000000000000000
-24.802867889404297 1.834214806556702 22.581703186035156
-4.611928462982178 24.561748504638672 -10.066070556640625
-10.371973037719727 -22.709220886230469 -0.774692535400391
14.979463577270508 19.797969818115234 -26.191993713378906
4.859486103057861 22.995883941650391 60.000000000000000
-5.960761070251465 24.142509460449219 -43.312297821044922
19.329095840454102 5.511624813079834 59.999996185302734
17.825843811035156 17.443239212036133 -25.182029724121094
8.547533988952637 -23.389554977416992 53.724609375000000
16.852327346801758 -18.248601913452148 35.056503295898438
-5.432584762573242 24.314123153686523 -14.810249328613281
-24.802867889404297 1.739530086517334 34.679107666015625
-23.067983627319336 9.024398803710938 -60.000000000000000
8.176040649414062 18.594867706298828 -59.999996185302734
-12.797586441040039 21.254274368286133 -45.010040283203125
-24.802867889404297 2.798586606979370 47.836296081542969
-11.840980529785156 21.861354827880859 30.580520629882812
21.174148559570312 1.353500843048096 60.000000000000000
-17.022159576416016 -18.105764389038086 26.474576950073242
13.846454620361328 3.026283264160156 59.999996185302734
4.456677913665771 -24.399959564208984 -16.265724182128906
-12.286487579345703 -0.879599571228027 60.000000000000000
17.054172515869141 11.912702560424805 -60.000003814697266
22.060661315917969 11.657426834106445 1.464555740356445
-16.688850402832031 -18.460699081420898 -10.791931152343750
24.249223709106445 5.943027496337891 29.526269912719727
-23.087968826293945 -9.487683296203613 -40.318290710449219
-22.720338821411133 -10.156399726867676 34.036857604980469
19.821411132812500 14.915328979492188 0.007766723632812
-21.612327575683594 -12.171865463256836 -29.830703735351562
11.781935691833496 21.867565155029297 3.268516540527344
-3.058408260345459 -15.487480163574219 -60.000000000000000
1.827221632003784 -7.035740852355957 -59.999996185302734
13.238766670227051 11.198804855346680 60.000000000000000
6.097172737121582 -24.087017059326172 3.481529235839844
-6.185349941253662 -10.475816726684570 -59.999996185302734
-22.556097030639648 -10.455153465270996 28.788869857788086
11.357720375061035 15.821760177612305 -60.000000000000000
-6.111618995666504 24.093492507934570 2.332749366760254
-18.735736846923828 -16.280988693237305 -49.609394073486328
-22.520694732666016 10.401970863342285 60.000000000000000
-23.704368591308594 -7.411703586578369 -56.203704833984375
-6.978779792785645 -20.383235931396484 60.000000000000000
-21.525901794433594 12.329072952270508 -11.324212074279785
7.616175174713135 5.402754306793213 -60.000000000000000
24.079788208007812 -6.557699680328369 -39.728958129882812
6.036231040954590 9.620655059814453 60.000000000000000
6.011106491088867 -8.154142379760742 -60.000000000000000
1.642950296401978 6.849817276000977 -60.000000000000000
6.025961399078369 4.273273468017578 60.000000000000000
-16.414459228515625 2.369810581207275 59.999996185302734
5.793206214904785 0.974336385726929 -60.000003814697266
8.225440979003906 -11.676412582397461 59.999996185302734
-15.078359603881836 -6.438510894775391 60.000000000000000
10.169880867004395 22.626138687133789 -15.137509346008301
1.046449422836304 6.138758659362793 60.000000000000000
3.075728416442871 10.811348915100098 -60.000000000000000
-11.385440826416016 -3.454621315002441 -60.000000000000000
5.776980876922607 -24.148097991943359 -34.909973144531250
-6.868110656738281 -14.146185874938965 -60.000000000000000
-9.907522201538086 2.536550998687744 60.000000000000000
-23.588117599487305 7.864466667175293 18.548309326171875
-19.897953033447266 5.160638809204102 -60.000007629394531
-16.502120971679688 -2.877997398376465 60.000000000000000
23.915847778320312 6.971760749816895 -4.695983886718750
-7.922779083251953 6.720011711120605 -60.000000000000000
23.098091125488281 -9.037181854248047 -28.042274475097656
19.182533264160156 15.794670104980469 -11.742767333984375
18.938737869262695 16.130222320556641 -43.951671600341797
16.863071441650391 -18.239713668823242 6.115486145019531
-6.695600509643555 -23.903745651245117 10.823051452636719
6.790794372558594 -23.954702377319336 -48.813781738281250
-23.848903656005859 -6.848780155181885 -48.212135314941406
-22.238327026367188 11.033171653747559 11.826822280883789
6.245743751525879 24.058675765991211 0.072762489318848
24.579807281494141 3.326177597045898 21.254957199096680
-8.392247200012207 -23.352470397949219 14.872322082519531
2.102210044860840 24.849098205566406 46.319938659667969
-6.368860244750977 -24.009910583496094 -15.894441604614258
18.366107940673828 -16.918380737304688 -45.606792449951172
6.075743198394775 -24.091106414794922 39.737045288085938
6.070319175720215 -24.092140197753906 12.350093841552734
-15.805683135986328 19.345279693603516 9.518341064453125
24.708728790283203 2.305646657943726 -52.331657409667969
-10.578987121582031 -22.641958236694336 -38.568061828613281
24.494621276855469 4.000486373901367 -47.211357116699219
6.739444732666016 23.964496612548828 -14.445784568786621
-11.206710815429688 -22.263875961303711 36.004211425781250
