# This PCD file was generated using the MATLAB® pcwrite function
# from Computer Vision Toolbox®.
# .PCD v.7 - Point Cloud Data file format
VERSION .7
FIELDS x y z
SIZE 8 8 8
TYPE F F F
COUNT 1 1 1
WIDTH 827
HEIGHT 1
VIEWPOINT 0 0 0 1 0 0 0
POINTS 827
DATA ascii
24.802964535387570 4.641648203122992 25.288846969604492
-2.618968161908581 26.377528578031431 34.614173889160156
11.965414372118516 23.564662367093931 27.149856567382812
24.938355770739133 3.569916158903020 3.179927825927734
9.256052342089220 -21.436859697115054 -32.531341552734375
-8.464654597608046 -21.570910066377749 -6.863448143005371
-18.542936953870242 -9.001327127229791 -60.000003814697266
20.633664456041867 15.738779455411811 -51.423706054687500
14.827432957323595 -18.366659730684390 -5.862872123718262
22.383363094957883 12.984248548734564 6.534423828125000
5.247122135790391 -17.598499864351382 -60.000000000000000
22.978616085680539 11.480811506498236 -45.741043090820312
3.713744965227647 -22.873587220918765 36.347782135009766
-12.927068385449843 22.762786298978696 -40.372066497802734
-22.457686099378055 -6.454742997896297 60.000000000000000
14.115010586412950 22.358758360135923 -43.711532592773438
-20.738035830823367 -11.743577569734674 -34.059017181396484
-5.857409152356581 -14.006106942903619 60.000000000000000
16.085496273668820 -17.325897783052554 -43.376525878906250
10.849747028978868 -20.686922639619937 -28.821788787841797
-19.088432940808719 17.421044737089051 47.770038604736328
-7.247210177747206 -21.966480821382632 -45.234687805175781
1.587437000902697 26.642173200834165 6.259180068969727
19.076108303698117 -14.479836076509580 -56.296726226806641
24.921132412584836 3.706263691175359 -35.383331298828125
-15.343128833142714 21.229506880033384 -48.972640991210938
13.359834042223497 -8.583713144075494 59.999996185302734
-10.280147227612929 24.383752256620298 14.687185287475586
-24.628458651868289 -0.768449872743709 -0.245225906372070
-23.175390872327274 10.494027525174994 -25.706699371337891
14.069989529284044 -18.993271440279116 -15.883811950683594
22.503659573229367 12.680416494596381 32.018329620361328
-23.133724841443485 10.656299978483100 -34.042984008789062
-15.145790728894667 21.354741483915220 -0.062292098999023
24.625825253161008 -1.399741262209041 60.000000000000000
4.990635719927354 -13.356419175874811 -60.000000000000000
-13.339132937756972 22.643885999906431 60.000000000000000
21.322036114367062 -11.388581842195611 40.434204101562500
-24.369009646741336 5.845181375730413 16.697008132934570
20.196746197374875 16.340142637479676 -26.431287765502930
-24.628458651868289 -0.527066797029598 -4.536252975463867
1.456932511957691 26.633963972318540 33.335609436035156
-24.269564303723758 6.232491880643743 -13.059082031250000
-21.437410983411258 13.874150663602729 -50.508781433105469
24.948731747301633 3.487794071424382 54.526763916015625
-24.628458651868289 2.164966195810214 -32.343322753906250
-22.440344485608524 12.049822241056342 39.253784179687500
18.285340634020383 -15.057716935884574 -59.999996185302734
-23.774939212171024 -4.756200402986628 2.566057205200195
-24.544375094739383 -1.759455293428523 15.569883346557617
-23.065718325940555 10.912273794401068 31.977275848388672
-20.913607272473758 14.826952368009467 -24.104454040527344
-19.149189624158328 17.356345564115419 -50.024368286132812
-1.831880006162121 19.931134611356626 -60.000000000000000
18.210543957384640 18.970637708890806 -7.206388473510742
-20.808897647229617 -11.614683717500787 -25.442504882812500
-24.628458651868289 4.775830417859931 54.959732055664062
17.750912991198117 -9.277344316255670 -60.000000000000000
-3.301669034329846 26.334576994169126 -56.228141784667969
-2.251808556882336 26.400628477323423 4.772081375122070
20.938044872911984 15.319834142911811 -14.889022827148438
22.378796902330929 12.995778471219916 -17.993211746215820
-24.628458651868289 -1.005513519060237 21.771896362304688
19.925587978991086 -4.650552362215143 -60.000000000000000
13.851771679552598 -19.173796266328921 -46.672584533691406
-14.820655497876601 21.561080366361509 -10.772130966186523
24.673808422716672 5.664036899793524 -14.028940200805664
20.008361187609250 -13.196703523408990 47.386894226074219
14.431537953051134 -18.694172471773257 21.770696640014648
22.008847561510617 -10.443271249544244 9.170822143554688
18.179284420641476 18.996497541654477 12.695552825927734
24.930882778795773 -0.226356834184749 -13.233877182006836
5.789746609362169 25.880299955594907 55.635887145996094
24.962819424303586 3.376270681608097 -25.008001327514648
24.229213085802609 -4.919428437959772 16.096265792846680
-3.581732425061658 16.376254469144712 60.000000000000000
0.156168428095386 26.552125364530454 -53.649253845214844
-9.837800654736952 24.527480512845884 -23.279014587402344
-14.059416446057753 -18.641443818819155 14.287668228149414
21.813212719591672 -10.712536424409967 -46.138603210449219
-8.293450030652478 -21.626537889253726 -41.603866577148438
-0.855463060704663 26.488479048002134 -11.574280738830566
19.451552715929562 17.365813642728700 49.258552551269531
-21.926912936536258 12.983750730741400 -7.134284973144531
15.761379566820676 -2.542588323366267 -60.000000000000000
-12.959602984754042 -19.339405626070132 7.288757324218750
-20.955990466443485 -11.347122758638482 -51.543731689453125
10.055247631701036 24.463517576444517 -55.661521911621094
-19.052176150647586 -14.056921571504693 -28.533985137939453
-0.655047747460797 26.501088529813657 -0.661139965057373
-20.427029284802860 15.712029844510932 -39.511421203613281
-7.490337046948866 25.290213972318540 26.836168289184570
2.624741163881824 -23.081324189912905 13.201446533203125
20.017218914660031 -13.184508889925104 27.033426284790039
-10.800488147107558 15.861071974027533 -60.000000000000000
-23.644644412366336 8.666397005308051 9.781379699707031
2.521921244295642 26.503671079862485 -25.613080978393555
-24.628458651868289 -1.160746186983211 -11.485404968261719
-5.326959285108046 3.934173971403020 -60.000000000000000
-21.490729007092899 13.777169615018744 23.318059921264648
-13.526581439343886 -18.979591935884585 -35.259803771972656
-13.304368647901015 -19.120611757051577 55.611068725585938
19.183343258532101 17.734973341215024 9.151222229003906
-19.925797137586063 16.529342085111505 21.298555374145508
-8.662850055066542 24.909243971097837 7.895551681518555
-1.861513289777234 -23.022450059663882 -37.108512878417969
-15.051355990735487 21.414672285306821 49.853958129882812
-19.725073489514774 15.082563787687201 59.999996185302734
-21.877073916760867 13.074408918607611 -18.575111389160156
-23.876080188123172 -4.362276643526179 -6.797668457031250
12.614910450609727 23.259032636869321 -29.080797195434570
25.022809353502804 0.501316577184575 42.776687622070312
-24.628458651868289 -1.185424417268855 47.558124542236328
8.887960758837266 -14.085935205232721 -59.999996185302734
15.395818081530138 -17.896450608980288 -20.161516189575195
-1.762535962430432 -23.028679460298648 -41.842109680175781
-17.549370440808719 -15.657248109590631 -43.051227569580078
20.426392880114133 -12.621329873811822 -11.035902023315430
-24.628458651868289 3.674034148443120 -56.410102844238281
-19.050425204602664 -14.058785051118951 -39.407737731933594
-24.628458651868289 3.321705013502019 -46.572311401367188
-22.473831805554813 11.988909155118842 50.662750244140625
11.933706608446641 0.775738388288395 60.000000000000000
13.759566631945177 22.652808576810727 52.312248229980469
16.111268368395383 -17.304577440034976 43.769725799560547
3.602819529207750 -22.894747346651187 6.198407173156738
9.515155163439317 24.717664152372251 -34.426895141601562
21.420276013048703 14.656100660550971 -29.704063415527344
22.444142666491086 12.830737501371283 -6.046325683593750
24.837451306017453 -0.965932220232112 54.660236358642578
0.341904011400745 -23.161078065645327 -18.574617385864258
-4.700490149823622 -1.588193029176814 60.000000000000000
-23.927496585217899 7.564752489316839 21.806785583496094
17.607228603991086 -16.067011445772280 -52.602066040039062
24.877530422838742 -0.648661226045712 -52.399375915527344
-11.114781054822402 -20.510166734468569 -16.459838867187500
7.719218578966660 -22.109501451265444 32.986930847167969
-22.591044101087039 11.775699049222846 -55.544761657714844
-15.349642428723769 21.225373655546079 -4.061637878417969
-15.664415988294081 6.069130808103460 -60.000000000000000
15.458876934679552 21.247016340482602 14.460281372070312
-14.923346194592909 -18.093178361665835 42.822357177734375
-24.628458651868289 -0.626231521379574 31.075386047363281
2.163055864008472 26.572127729642759 54.290985107421875
19.656096783312375 6.515037447202581 -60.000000000000000
7.240264263781114 -22.200865358125796 8.237480163574219
-24.461538943616336 5.484802395093817 -7.605920791625977
19.425689068468625 -13.998680681001764 3.944033622741699
-1.202096733418897 -23.063938707124819 57.482654571533203
24.410722103746945 -4.343850225221735 -1.124996185302734
-24.628458651868289 0.634266406286137 -36.276069641113281
6.086860027941270 25.823621183622251 4.543611526489258
-19.238552722302860 17.261184126127137 52.189464569091797
-9.399832400647597 24.669783979642759 -4.290468215942383
-20.058912906018680 -12.978899568330865 -9.681652069091797
20.411956158312375 0.438878923643010 -59.999996185302734
-24.628458651868289 4.799888998258490 -35.641380310058594
23.233594265612179 10.836816221464057 55.737960815429688
4.301317539843126 26.164231687772642 26.186769485473633
21.438855496080929 14.630528837430854 -55.630039215087891
-19.610090884534305 -4.161206811678034 -60.000000000000000
-19.792067202893680 5.208347231138127 60.000000000000000
19.058934536608273 -14.503477662813287 9.212292671203613
-21.687512072888797 13.419221311796088 29.389982223510742
-15.805621775952773 20.916882902372251 55.522079467773438
-5.594384345380263 -22.503515809785952 -38.123451232910156
23.355100002916867 -7.127190202486141 -20.716201782226562
-1.028927239743665 -23.074833482515444 -55.911861419677734
19.420802441271359 17.408136755216493 20.661743164062500
-24.628456744519656 -1.092627614748104 36.133003234863281
12.499648419054552 -19.910538285982241 52.344848632812500
15.490322437914413 21.221000105131040 5.903627395629883
-3.952271136609510 -5.551606744539362 60.000000000000000
14.514015522631212 -18.625938981783023 17.736198425292969
-22.153919848767703 -7.612042993318657 -60.000000000000000
11.354307499559923 -3.281119436037167 -60.000000000000000
-1.320195111600354 -23.056505769502749 -4.260833740234375
-3.460635575620129 -22.921843141328921 8.455167770385742
9.613421765001817 24.671424299466977 6.766792297363281
24.442286816271359 -4.093983262788874 -30.416234970092773
22.238480892809445 13.350179105985541 24.651746749877930
24.446589794786984 7.462662607419866 34.023998260498047
-14.084619197217421 -18.411774247896304 60.000003814697266
-22.666304263440555 -8.236073106538873 3.585811614990234
22.114587155016476 -10.260366052400689 24.881586074829102
6.192270603807970 -22.400782197725405 28.303140640258789
3.429921951921985 26.330460935819517 -50.091640472412109
-17.897514972058719 18.689242750394712 35.844501495361328
-2.613205346433118 -22.975159257661929 0.274616241455078
-23.972418460217899 -3.987072080385309 12.309347152709961
12.586274471910997 -19.869774431001773 34.082176208496094
-10.370186480847792 -20.288189500581851 60.000000000000000
-10.684961947766737 -20.782936662447085 25.327993392944336
22.625396099718625 -7.941576570283989 -60.000003814697266
-5.754665049878554 19.828795820463071 -60.000000000000000
25.052413311632687 0.735670119512455 24.980131149291992
6.918554630907579 -1.305010408174617 60.000000000000000
23.694205608995969 -6.270708173524958 45.511611938476562
22.352471676500851 13.062272459257025 -39.412063598632812
-21.042734774915164 -11.189334481966119 41.254196166992188
24.941081371935422 3.548338085401433 9.378420829772949
9.024541226061388 -21.264708131563296 -60.000000000000000
-23.455326709119266 -6.001006692659479 40.788516998291016
-19.211228045789188 17.290280729520692 -45.242248535156250
-15.027672442761855 21.429702192533384 37.885101318359375
7.271344509752794 25.597667127836118 13.714569091796875
-12.732781085339980 -19.483351320039858 1.711174011230469
24.897885647448117 3.890277057874577 -2.356525421142578
-5.190005931226210 -22.634907335054507 -55.506961822509766
-21.796187075940555 -9.818809121858697 37.447982788085938
23.130107250841672 11.098189741361518 10.815290451049805
-6.417151603070693 25.638915449369321 -36.071048736572266
-0.625979396668866 26.502917677152524 -34.453868865966797
14.633695927294298 21.929664045560727 -19.996427536010742
0.918606784971760 26.600093275297056 -38.432521820068359
14.368226376207872 -18.746548265230288 -39.429546356201172
11.248397198351427 23.922789961088071 60.000000000000000
23.243819561632687 10.810984045255561 -9.192752838134766
24.443078365953976 -4.087741464387995 -45.080017089843750
-11.421009692517714 -3.259829133760555 60.000000000000000
20.372424450548703 -12.695612519991021 -26.589288711547852
-23.551962527600711 -5.624638646852595 56.320793151855469
-1.308787021008923 -23.057224839937319 30.369216918945312
-24.628458651868289 4.390266567457098 -25.900127410888672
-21.356609973279422 -10.618398278963189 -12.833231925964355
11.301415768297716 23.877114683378110 42.630386352539062
24.931634274157101 -0.220395416032894 -19.502679824829102
-5.353508624402480 25.984513670194517 56.696868896484375
12.248149243029161 -20.028885453950991 -42.238254547119141
-19.796614322034305 -13.264176934969049 -16.358821868896484
24.840743389757687 -0.939886182558162 32.275279998779297
-5.803766879407362 5.921656996000189 60.000000000000000
10.467962589891954 -20.866577714693179 -47.610885620117188
-1.316460999814465 26.459475904691587 11.014432907104492
-19.381376895276492 -13.706359475862604 38.878704071044922
-19.236233386365360 17.263653188932313 -11.353225708007812
-11.885339412061171 23.423886686551938 24.869071960449219
18.989640560778195 -14.598850816499811 13.568300247192383
16.771436062487179 -10.724277108919244 60.000000000000000
-24.628458651868289 3.242039591062443 29.528083801269531
6.685562935503526 -13.915289491426568 60.000000000000000
-21.128695163098758 14.435705572355170 -1.325440406799316
11.279830303820177 -20.484539598238101 37.586250305175781
-16.925207766858524 19.724645048368345 20.246892929077148
2.900463190706775 16.835869222867853 -60.000000000000000
-19.112875613538211 -13.992283433687311 10.293160438537598
1.019668784769581 26.606452375638852 59.542186737060547
21.026614514025265 15.108071714628119 60.000000000000000
-0.914037498799755 0.770373731840031 59.999996185302734
1.813849893244312 26.638741880643735 -43.056587219238281
6.707418289812608 25.705245405424009 51.534393310546875
25.007600155504758 3.021800667035953 58.329368591308594
2.872151699694202 -23.034128755342593 -21.863857269287109
-9.785570773450331 24.544452100980649 50.312881469726562
-21.715405139295047 -9.965752214204889 21.310022354125977
14.921626415880723 -18.288736909639468 55.546035766601562
-15.831553134290175 -17.486538499605288 9.859066009521484
-16.468365344373176 -16.808401674043765 22.395500183105469
-13.128782901135878 -19.232042878877749 -21.871406555175781
-6.961410674420790 19.788005262601743 60.000000000000000
-8.560736331311659 -21.539690583955874 3.482421875000000
-1.572147640553906 26.443389326322446 51.977142333984375
-23.148695620862430 10.597992330778021 24.348720550537109
12.572008457811876 -19.740198701631655 -60.000000000000000
23.215047207506711 10.883655935514350 19.440521240234375
-23.647785815564578 -5.251428693544489 30.802049636840820
-16.636063250867313 -16.629820436250796 -38.104450225830078
-13.897685679761366 -18.744080156099429 25.415840148925781
19.705022183092648 11.321154981840033 59.999996185302734
6.160538044603868 -22.406834214937319 24.378496170043945
-14.433672580090956 -18.403933137666812 36.125846862792969
5.153608647020860 26.001647382963071 -40.569137573242188
-12.958434733716444 22.742879301298032 -22.220100402832031
20.810813275011594 15.494953542936225 -8.071783065795898
23.546792355211789 -6.643032640230280 -51.057800292968750
6.744506683977647 -22.295437425386538 -7.135925292968750
-10.808434161511855 -20.704578965913882 29.418411254882812
25.135882702501828 2.006340295064823 34.895156860351562
-9.611199054089980 19.454966932523618 -60.000000000000000
-13.007218036023573 22.711921125638852 -26.129795074462891
-23.462734851209110 -5.972158998262507 16.608543395996094
11.712529507311388 23.683659940946470 -22.681583404541016
-9.735424670545058 -21.158011049043765 47.749900817871094
24.910258618029172 3.792343765485661 46.281433105468750
23.813742962511594 -5.514873594057184 59.999996185302734
10.944854107531114 9.681706815946479 -60.000000000000000
-5.020946654645400 26.092568784940610 -48.116199493408203
-11.459484729138808 23.694140821683774 -29.898166656494141
-1.657514962521985 -23.035284608614077 34.441452026367188
-6.965139064160780 -22.058132737886538 -2.429967880249023
-4.556362304059462 26.243523985135923 -51.990890502929688
4.401704636248155 26.145081907499204 38.064666748046875
-24.002730044690555 7.271750360715765 -18.797369003295898
24.704087582262570 -2.021607965242488 -4.024565696716309
-23.877424868909305 7.759784132230657 -43.977958679199219
-19.826523455945438 16.244639784086125 -60.000000000000000
23.783486691149289 9.447943121183295 3.114937782287598
6.977385845812364 -22.251011461031069 -3.417228698730469
14.961364117296739 -18.255861848604312 26.723100662231445
20.267817822130734 16.242322355497258 -37.273872375488281
-21.038809451428836 -11.196472734224420 7.977760314941406
21.518109646471554 14.134517103422064 -60.000000000000000
-23.922329577771610 -4.182155221712214 -37.249961853027344
9.811042156847520 24.578431516874204 -51.715114593505859
0.741142419012592 -18.423334687959780 -59.999996185302734
24.493821468981320 7.088777452695745 -8.493644714355469
24.937760677965695 -0.171891659509761 47.772697448730469
-16.249947223035289 20.443723112333188 -19.481830596923828
-19.102190646497196 17.406391531217469 -34.701087951660156
-23.290566119519656 10.045435339200873 -51.387275695800781
16.767924633654172 20.164077192533384 -46.033603668212891
23.573043194445187 -6.576728433382135 26.390594482421875
-21.265560778943485 14.186747938383002 -33.469963073730469
-0.092750343648389 26.536466032255063 24.897428512573242
23.669501629503781 9.735831648099799 51.420471191406250
-15.713275584546523 -17.591873735200991 -19.674942016601562
-24.628458651868289 -0.887260526430233 55.040782928466797
-19.420284900037235 -13.664925187837701 14.182396888732910
-22.062628421155399 -9.334154695283990 -55.787837982177734
-16.864689502088016 -16.386358827364077 46.969974517822266
0.816790369185016 -13.056267350923639 -60.000000000000000
-6.401607188550429 -22.241234391939273 -23.136455535888672
-23.419111880628055 9.544791609037299 -15.249451637268066
-18.970888766614383 17.546214491117372 -55.524917602539062
-19.774431857434696 16.690526396024591 -20.813652038574219
14.126850453051134 -18.946230500948062 -27.328876495361328
6.393329468401475 20.171500593412290 60.000003814697266
-24.058149966565555 7.055901914823431 28.503112792968750
22.780518856676633 11.981149107206244 -49.932029724121094
15.069713917406602 21.568959623563657 -50.506797790527344
-23.826143893567508 -4.556765168916804 20.796234130859375
-8.482690486279921 24.967780500638852 40.377319335937500
17.333640423449094 17.868548780668149 -59.999996185302734
23.487525311144406 -6.792719453584774 41.813877105712891
24.914437618883664 3.759248405683415 -21.212026596069336
8.275603619249864 -21.898224443208804 -53.830253601074219
-24.628458651868289 -1.302229970705135 -45.242691040039062
18.727376309069211 -14.959827989351373 -33.412914276123047
-8.329588565198378 25.017527967679868 -55.434108734130859
17.815621700914914 19.297347456205259 -20.623584747314453
7.710718956621689 2.389406830060856 60.000000000000000
-17.179457339612430 19.453898817289243 42.340759277343750
-14.997512492505507 -18.046108812105288 -26.384433746337891
3.349586811693714 -0.114621132623775 60.000000000000000
-0.739690396157696 -23.093031495821108 -52.119369506835938
-14.868772181836562 -18.127810090791812 -6.982210159301758
-24.628460559216922 2.088847637164966 -9.417194366455078
24.458916989000851 -3.962346643221003 -7.347278594970703
24.906077709826047 3.825437694776433 13.271340370178223
-19.711958560315555 -13.354322999727350 35.132633209228516
-23.594195041028446 4.824585109937567 -60.000000000000000
23.406188336046750 10.400885969388861 46.822875976562500
24.903468456896359 3.846089750516789 39.709320068359375
21.988902416857297 13.873453527677436 44.315666198730469
-14.585008296338515 -18.307892411958804 51.638275146484375
12.967046108873888 -19.690598100435366 41.168457031250000
2.719520655306384 21.150477796781431 -60.000000000000000
14.805845585497423 21.787249952543149 29.917808532714844
2.127536144884631 26.578904539335142 50.459793090820312
22.334746685656125 -9.704310029756646 49.011829376220703
23.240119305285031 10.820328146207709 -29.389600753784180
23.071858730944211 11.245307356107611 35.964614868164062
5.901434746416612 25.858994871366392 33.489391326904297
24.468758907946164 -3.493515580904110 -60.000000000000000
-2.665230426160290 9.204937368619822 -60.000000000000000
14.400561657579942 -18.719799608003726 -0.655151367187500
-13.723798426953749 -18.854433625948062 -39.085594177246094
-15.995211276380019 -17.312260240327944 -49.158691406250000
-19.965519580213016 -10.845601648103814 60.000000000000000
19.525931683214719 -13.860710710298639 0.201027870178223
14.413958874376817 -18.708714097749819 -56.301757812500000
-21.288033160535281 14.145871549833197 55.298671722412109
-24.628458651868289 4.625912100065131 2.324480056762695
-0.792892608014538 -0.733199685823543 -60.000000000000000
21.755090084703976 -10.792536348116021 1.262653350830078
11.639580097826524 23.717988401639829 15.438550949096680
-24.628458651868289 -0.561776489030941 -49.408912658691406
2.760372248323963 0.590297132718937 -60.000000000000000
-6.238818320599989 15.381914526212592 -60.000003814697266
-8.633808764783339 8.359243303525822 60.000000000000000
12.803110447557970 23.170472532499204 46.626003265380859
-16.654562625256961 -16.610121339571108 54.542434692382812
24.419722881945187 7.675335317838567 12.489044189453125
4.323176708849473 -22.757328599702944 -27.250240325927734
-18.932577761975711 12.085629850614447 -60.000000000000000
-10.575739535657362 -14.378195375215631 -60.000000000000000
-2.375536116925671 -20.571852296602358 -60.000000000000000
17.727485027941281 19.370259672391782 -40.825500488281250
-11.295466098157362 -20.395500749361148 43.771408081054688
21.408078518541867 -11.270159333955865 -2.834499359130859
-8.346997889844374 -10.682732194673639 60.000000000000000
-18.799164447156375 17.729083448636899 17.677137374877930
8.350362148912950 25.265775114286313 39.360305786132812
14.247371044786973 22.249259382474790 18.310041427612305
19.492768612536008 17.309088140714540 56.476806640625000
-16.597588214246219 20.073523908841977 -7.575002670288086
-18.539074572888797 -14.603321641695123 -35.100006103515625
12.350435581835313 -19.980751603853335 -8.583740234375000
3.466876354845569 26.323409467924009 18.056669235229492
-5.507562312451796 25.934461027372251 52.885520935058594
-21.985895785657352 -9.473734468233209 12.960731506347656
-22.681231173840946 1.058891385782140 -60.000000000000000
-4.057163867322399 26.287042051542173 -26.815317153930664
3.113563862474964 26.390807539213071 1.998765945434570
15.130201664598985 -17.442276567232241 60.000000000000000
-24.628458651868289 4.056919246900456 43.434333801269531
-22.828726443616336 11.343358427274604 -3.472980499267578
-23.855333957044071 7.845815569150823 -39.184013366699219
10.124267903002306 24.431039243924985 53.750724792480469
2.528595295580432 26.502398878324399 -7.170928955078125
-24.628460559216922 4.036994844663518 59.419570922851562
-11.236915263501601 -20.495659440767398 -60.000003814697266
6.992085781725450 14.675271421659369 -60.000000000000000
-12.049967440930800 23.319409757841001 -50.265296936035156
-24.374382647839969 -2.421528428804499 51.427719116210938
-19.667162570325321 16.804759412992365 32.594421386718750
20.197692242296750 16.338840872037782 52.804641723632812
-10.396428737012343 24.345969587552915 46.382484436035156
-4.045347842542125 -22.885056108247866 55.008148193359375
-15.780761393872694 -17.540625184785952 0.222799301147461
-24.413330706922000 -2.269831746828181 -25.658054351806641
24.990922299059445 0.248926430929081 6.194969177246094
6.440244045885606 25.756209760892759 -26.633689880371094
-19.150492343274539 -13.952226251375299 -20.213090896606445
-11.635043773023085 23.582728773343931 36.837646484375000
21.338668194445187 -11.365691751253229 -35.290817260742188
-21.638432177869266 13.508492857206244 -27.742910385131836
-24.628458651868289 2.415333360422031 -13.497683525085449
-12.317810687390761 8.378480344999211 -60.000000000000000
0.738821473749683 -23.186050981294741 -14.300468444824219
-19.072302493421024 -14.035488694917779 51.774608612060547
16.299329128893429 20.551734358060727 -37.512695312500000
-24.628458651868289 3.038219839322941 -1.770358085632324
-7.759528788892226 -21.800018876802554 -51.384826660156250
-22.790993365613406 11.411994367826361 -45.554862976074219
22.834435787828976 -8.442239373933893 21.687820434570312
0.025215473803088 26.543885618436704 38.881141662597656
0.673268345030353 -3.030152410280331 60.000000000000000
-2.996556910840466 -5.102739900362116 -60.000000000000000
-1.283573541013196 26.461545377958188 -15.706151008605957
-21.042080554334110 -11.190521806490045 55.330688476562500
20.063847866686398 16.523061186063654 25.456943511962891
20.751160946520383 -12.174325555574518 -20.396202087402344
11.276879635485216 -20.485930055391421 57.951755523681641
-14.325540217725234 -13.947043031465631 60.000000000000000
25.016122189196164 0.448395639646428 20.664390563964844
0.293241587313220 -23.158016771089663 -45.384021759033203
-11.048315677014784 -20.552347749483218 -55.777381896972656
-19.859190615979617 -13.197540849458795 30.828594207763672
-5.629179629651503 25.894944578397642 -22.568895339965820
-6.890026721326308 24.399024397123227 60.000000000000000
17.640401211412961 -16.039570420992007 -40.134429931640625
17.288575497301633 19.733357816923032 -1.206129074096680
13.975993481310411 -19.071030229341616 14.004852294921875
-24.628458651868289 0.999472051847355 -28.028320312500000
-3.200997027722790 23.764998823392759 -59.999996185302734
2.080539789827869 -23.185137361299624 26.015865325927734
19.915227261217648 -13.324890702974420 17.457643508911133
2.843039360674426 26.442414671171079 -13.791786193847656
20.083159771593625 -2.697940438997371 60.000000000000000
24.622680035265500 -2.666029065858943 -48.618041992187500
-23.597635897962039 8.849479585874459 14.156916618347168
-24.628458651868289 4.127113729703802 -42.169754028320312
-7.910102519360976 -5.970083326112849 60.000000000000000
-21.435614260999149 -10.474688142549615 -47.714622497558594
16.303763714464719 20.548062711942563 41.484390258789062
14.563383427294298 -18.585098832857241 -34.697528839111328
24.962626782091672 3.377796918142216 -10.466739654541016
-16.895176562634891 -16.353891938936343 -23.351612091064453
-21.961187991467899 -9.518673509370904 -17.497581481933594
-10.139434489575819 12.628254324186225 60.000000000000000
-24.154448184338992 -3.278116792451962 -52.002967834472656
-11.063471469251112 23.945458799589048 -59.078659057617188
24.482056942614133 -3.779182046663386 49.304309844970703
-17.472708377210086 -15.738884538423644 -58.399658203125000
19.461072292955929 -13.949978441011529 43.458282470703125
-1.522646102277234 12.839008718717475 -60.000000000000000
10.581483212145372 19.909940153348813 60.000000000000000
-13.805905017224745 -9.223444551241021 -60.000000000000000
-6.718425902692275 25.541026502836118 17.778451919555664
-8.368359240857558 25.004929929960142 -27.925594329833984
24.758649197252804 -1.589726060640437 38.284530639648438
24.378941860827023 -4.541259378206354 33.947570800781250
-23.748167666760867 -4.860471338045222 36.925186157226562
-5.664345416394667 -22.480785936128726 27.742574691772461
-21.238653811780399 -10.832956880342584 45.060779571533203
4.614484158190294 26.104493528592954 -3.612827301025391
24.837199535997922 4.370657354581732 50.764526367187500
19.203065243395383 17.707827955472837 43.490051269531250
-21.846966418591922 -9.726443856966119 16.935745239257812
-24.628456744519656 3.862812906492131 39.581195831298828
-13.920136126843886 20.632296949613462 -60.000000000000000
-24.225567492810672 -3.001116842043025 6.958474159240723
24.459901180895383 7.357300668943304 -55.079658508300781
-23.433022174207156 9.490609556424994 55.080234527587891
23.786025372179562 -6.038798421632868 30.168781280517578
-4.655563983289198 -1.251393884431941 -60.000000000000000
-16.481695803967902 20.196935087430845 -44.914096832275391
24.422885265978390 -4.247562021028620 -34.834732055664062
-5.835726889935927 -22.425097078096499 -34.256271362304688
-6.240699443189101 12.804563909757514 60.000003814697266
2.735191670092151 4.694362312543769 -60.000000000000000
21.365050640734250 -11.329379647981744 -7.645225524902344
-21.319788607922977 -10.685376733553033 -43.982513427734375
-24.628460559216922 2.869343906629459 51.294204711914062
-13.203137072888808 18.462769895780454 60.000000000000000
13.391015377672716 22.893824964750181 -9.005495071411133
-22.943710955945438 -7.731468766939263 -50.973423004150391
-23.983118686047977 -3.945398420106990 -19.041954040527344
2.385246840151355 -23.127010911714663 -42.078128814697266
8.651336041124864 -21.721417039644351 -38.451683044433594
18.379317608507687 18.831015974271665 -29.609527587890625
-15.153193148938612 21.350043684232602 24.603811264038086
-19.169150027600711 17.335090070951356 7.458889007568359
10.582651463182970 -20.812607377779116 12.722776412963867
7.999369946154160 -10.174278825533014 -60.000000000000000
22.164479580553586 13.537085920560736 14.406398773193359
-7.460069331494765 -20.398407548677554 -60.000000000000000
24.517783489855344 6.899113088834661 -33.443473815917969
-4.867594870892958 -22.739666551363101 -5.560972213745117
-19.670307788220828 -13.398678392183404 18.143508911132812
-7.449362906781630 -3.980639070283991 -60.000000000000000
6.552266922625108 25.734839826810727 -22.568164825439453
-23.449125918713992 -6.025157541048151 -27.605916976928711
22.519345608385617 12.640799909818549 -12.363082885742188
-5.813524875012831 25.835046201932798 -31.764530181884766
11.271760311754747 9.425994306791205 60.000000000000000
4.512034741076036 16.401435285795102 60.000000000000000
-23.990051898328250 -3.918393701326472 24.939033508300781
16.826672878893429 20.115476042020688 21.118438720703125
12.354660359056993 23.381495863187681 -47.240787506103516
3.109392014177844 -22.988873094331851 54.649971008300781
1.462277141245410 -11.438091844331842 60.000000000000000
24.454963055285031 7.396392256009954 54.937606811523438
-16.324034365979628 20.364831358182798 -54.745075225830078
-8.002821597424939 25.123700529325376 30.659542083740234
3.266024199160144 -22.958992570650210 31.159942626953125
16.507302609118039 -16.976950258028140 -24.560548782348633
-1.396354588834241 5.119507700193303 60.000000000000000
-10.742712649671034 24.149018675077329 -14.652856826782227
23.993327465685422 8.917944341886422 -0.859251022338867
24.973410931261594 0.110309272992985 -37.453414916992188
-16.821833285657352 -8.536555856477838 60.000000000000000
-8.330250415173964 0.192617684591191 60.000003814697266
19.335580197008664 17.525433927762879 -3.831411361694336
-2.436316165296032 26.389018446195493 42.439651489257812
-18.974915179578250 17.541928678739442 27.405916213989258
1.316693034800098 26.625138670194517 42.624496459960938
13.751341190966173 22.659610182035337 37.620536804199219
24.614833202990109 -2.728146642458064 44.757408142089844
-21.493405017224735 13.772302061307807 35.265739440917969
-8.670929583875136 24.906619459379087 -51.412895202636719
-1.953692349759533 26.419383436429868 -41.308410644531250
5.143443909319444 -22.600857347261538 -31.149866104125977
-21.163918170300906 -10.968901246797662 50.642532348632812
16.656775799425656 20.256028562772642 58.955715179443359
14.149589863451524 -15.854355424654116 -60.000000000000000
-3.645901116696789 -22.910187333833804 -19.507871627807617
-21.184763583508914 -10.930986970674615 -38.322700500488281
-11.628870639172987 -20.183914750825991 17.755592346191406
23.025506344469601 11.362384229886908 -33.705490112304688
10.056104031237169 -21.060383409273257 5.847237586975098
-23.128920230237430 -7.272285074007136 -14.091482162475586
2.670048084887073 -15.248905748140434 60.000000000000000
-10.471733722058730 -20.918257325899233 -25.938879013061523
20.211942043932492 -12.916496843111139 57.106357574462891
-10.219700488416152 11.970757871854682 -60.000000000000000
3.631541100176378 -22.889267534029116 -47.124076843261719
-8.441143664685685 24.981280714261899 -46.555908203125000
-10.413100871411757 24.340552717435727 58.435562133789062
-16.272383365003062 -17.017101854097476 -15.015174865722656
7.187885609301134 25.613591581571470 28.727020263671875
-10.324970874158339 -20.966457933199038 11.614351272583008
12.379536953600450 23.369788557279477 10.765027999877930
9.147764530809923 24.890546232450376 -19.745635986328125
-9.571688327161269 24.613944441068540 -9.720832824707031
22.755816784533078 -8.640807718050104 -32.551811218261719
-17.090172442761844 19.548974424589048 3.828134536743164
15.464843121202989 21.242080122220884 33.952499389648438
-2.720917853681042 26.371112257230649 16.157518386840820
17.715146389635617 -6.400916665804012 60.000000000000000
15.059743252428575 9.046811014402289 60.000000000000000
-5.748735579816298 -22.453365892183413 59.984062194824219
-4.992573413220839 -22.699057191621890 3.331504821777344
-19.281372699109500 -13.812853425752740 1.757417678833008
-23.037241610852664 -7.561337083589653 8.919151306152344
-1.101725253430798 -23.070253938448062 -29.421449661254883
18.128302899035031 19.038674741971860 36.826057434082031
-4.767488154736952 -22.772192567598452 18.334342956542969
-0.506478759614423 26.510434538114438 -20.089128494262695
12.222441998156114 -20.040981858980288 8.726837158203125
-7.891997012464003 25.159709364164243 34.884475708007812
-23.951845797864383 -4.067201703798395 -42.061115264892578
-1.566020998326733 11.913634687650580 60.000000000000000
-1.609121474591687 -23.038330644380679 -9.248607635498047
-8.350140246716933 -21.608116716158023 18.915115356445312
-16.120798739758925 20.581250578153501 -23.328449249267578
23.158570614489133 11.026297003019232 27.814514160156250
19.827456799181515 -13.445696443330865 -42.130596160888672
-23.097468051282352 -7.394777864229303 -44.222702026367188
2.677269783648059 12.604682356107611 59.999996185302734
10.938431111010118 -13.902495950471979 60.000000000000000
17.570756283434445 19.499917417753110 2.913087844848633
15.445660916002794 21.257949262845884 -31.029211044311523
15.784516659411000 20.977622419584165 10.304018020629883
3.026141491564319 4.028095155942815 60.000000000000000
-8.832976016370253 -21.451235383760562 -12.082601547241211
-7.404271754590468 23.922770887601743 -60.000000000000000
13.566901531847520 0.961392551648991 -60.000000000000000
-14.635874423352675 21.678344160306821 28.899919509887695
5.753336277636095 -22.484512895357241 16.491783142089844
2.037680473955676 -23.193314164888491 21.353109359741211
3.007377949389026 -23.008333772432437 50.793071746826172
11.568448391588731 23.751458555448423 22.367820739746094
-13.516946467725234 22.388438612211118 6.336534500122070
10.010348644884630 24.484645277250181 -0.451896667480469
-10.295520457593398 -20.976025193941226 -34.433692932128906
-9.709541949597792 16.681199461210138 60.000000000000000
19.902259197863156 16.745471388090021 -33.160793304443359
-13.697622927991347 -18.871044725191226 47.509857177734375
5.278651562365098 -22.575064271700015 44.303680419921875
21.630793896349484 14.366347700345893 -2.547275543212891
21.060159054430539 15.151759535062689 29.551605224609375
4.501955357225938 26.125956922757993 8.994514465332031
-21.140959414807742 14.413397222745795 -43.212203979492188
-17.044832858411258 -16.194523423921694 -54.222686767578125
-18.514380130139774 2.921649605024235 -60.000000000000000
0.106511917742297 15.514974027860541 60.000003814697266
-10.804264697400527 24.109958082425962 4.315782546997070
25.000207272203976 0.322420626867192 -1.072441101074219
-12.786415728894667 -19.449314683687319 40.032447814941406
-23.834444674817508 7.927175909269232 -28.341865539550781
24.653676357897336 -2.420676797639948 3.440645217895508
-6.037687453595595 25.762210279691587 -18.494274139404297
-4.882414969769911 26.137582212674985 7.749143600463867
23.025754299791867 -7.959026902925591 -1.499039649963379
-14.599721583692030 16.808988958585626 -60.000003814697266
-15.482292804089980 21.141189008939634 33.560722351074219
-0.347551676598981 -8.969961732637506 -60.000000000000000
17.561292019518429 -16.105015367281069 -29.050086975097656
24.484561291369015 -3.759343713533503 7.149415969848633
11.975093212755723 -20.157375901949038 -3.995418548583984
11.198657360704942 -20.522738069307437 16.675146102905273
23.338961926134640 8.412282854307072 59.999996185302734
9.912922230394884 -21.127758592378726 -14.914905548095703
24.985169735582883 0.203371793020146 -7.856849670410156
23.766539898546750 9.490739256132025 42.446197509765625
3.421073046358631 -9.537343591463189 -60.000000000000000
-4.729757460919814 26.187182813871274 -1.499992370605469
12.255267468126817 -20.025536149751773 24.511194229125977
-20.187040957776492 16.148567587125680 14.162277221679688
24.523499813707883 6.853859812009710 -27.980361938476562
24.130677548082883 8.571035295713322 -37.901897430419922
-21.406950625745242 -10.526829332124811 -0.718545913696289
15.240321484240098 21.343415647733579 -60.000000000000000
-17.859591159192508 18.729627042997251 -15.449394226074219
5.203158703478380 25.992196470487485 -10.196000099182129
15.332269039782091 -17.949022859346499 9.958793640136719
10.288071003588243 5.242013841855901 60.000000000000000
-12.299191150037245 -9.225142091524225 60.000000000000000
7.816342678698105 -22.090973466646304 49.098426818847656
-16.716025027600711 19.947402387845884 15.042663574218750
0.539180663260028 22.853946119535337 60.000003814697266
-21.772688540784305 13.264286428678412 7.570432662963867
-24.165167483655399 6.639098078000921 50.984161376953125
-16.988943728772586 -16.254040330659976 15.401107788085938
14.084140148790880 22.384295850980649 -34.370414733886719
7.122464981707139 25.626069456327329 23.110599517822266
-24.628458651868289 0.406489998090641 8.447334289550781
1.919670668276356 -23.215824693452944 1.922142028808594
11.208442059191270 -20.518133729707827 0.264707565307617
14.844806042345567 -18.352285951387515 31.469650268554688
-21.837202700940555 13.146934896695990 43.906555175781250
-13.462567004529433 7.403067499387640 60.000000000000000
-19.627302798596805 16.847207456815607 -4.086412429809570
-23.824246081677860 7.966893583524603 0.086695492267609
-18.861735019055789 -14.259721368562799 58.868820190429688
-10.021142634717421 24.467908292997251 -0.466588973999023
-15.169930133191542 12.338359266508002 -60.000000000000000
-9.424786242810683 24.661675840604673 54.644958496093750
-12.584946307507948 22.979903608549009 41.738922119140625
10.316923466356798 -6.997410386812311 -60.000000000000000
17.112237301500851 -16.476507753145327 51.096611022949219
-23.994801196423953 7.302624136197942 -32.296722412109375
9.304224339159532 -21.414188951265444 22.406309127807617
8.988717404039903 0.466750293958562 -60.000000000000000
-10.029227885571913 -10.505667299043756 -60.000000000000000
17.299758282335812 19.724107176053892 28.055242538452148
-10.144908580151991 -21.024963945161929 -48.481906890869141
24.579491940172726 6.410635381925482 16.354637145996094
-15.032241496411757 -3.187476724397762 -60.000003814697266
-23.638617190686649 -5.287142366182429 -22.930278778076172
23.145774212511594 -7.655891031038385 52.523014068603516
-10.087793979016737 24.446250349271665 -18.764719009399414
22.230450955065304 -9.967732042085748 30.440200805664062
-6.412221583692030 25.640517622220884 11.447824478149414
-6.413292559949355 -22.237438768159976 -29.428180694580078
-22.969561251965946 -7.684449762117485 47.542640686035156
13.868388500841661 22.562779813993345 -13.948932647705078
10.862016049059434 4.579392343747992 -60.000000000000000
-5.698276671735243 25.872491270292173 47.028427124023438
-23.301294955579227 10.003658682096381 46.525505065917969
14.524577465685411 -12.069621652376275 -60.000000000000000
10.308042851122423 24.344561964261899 31.942398071289062
14.798621502550645 -6.714966386568171 -60.000000000000000
17.278491345079953 16.550465971219904 60.000000000000000
6.133258667620225 -2.718963235628230 -60.000000000000000
-6.127734813062148 -22.330221742403140 31.827095031738281
23.241135922106320 -7.415031045686822 37.678031921386719
7.849428024920029 -21.702990144502749 60.000000000000000
-14.902184161511855 21.509337812650571 -14.660682678222656
13.260541287096544 16.890132337797052 60.000000000000000
-22.039694461194461 12.778606802213568 15.699493408203125
6.000396099718614 25.840115934598813 46.857803344726562
-1.875708255139782 -14.640213578950982 60.000000000000000
6.566677418383165 25.732091337430845 -30.491521835327148
15.688202229174189 5.389428049314397 -60.000000000000000
-23.228581103650516 -6.884126275789364 52.541419982910156
5.331984367998643 -18.932892411958804 60.000003814697266
-10.454259547559218 -6.735905259859187 -60.000000000000000
-11.623457583753066 -20.187349885713687 -45.042259216308594
20.058469143541867 -13.127733796846490 52.303466796875000
7.569966164263294 -22.137972444307437 -22.649383544921875
24.389388409288937 7.915468603361028 37.867599487304688
16.898156490953976 20.056338697660337 52.836685180664062
11.768274632128282 23.657428175199399 -59.138626098632812
17.550681439074094 19.516524702299009 -53.565391540527344
24.307309475573117 8.124909311521428 8.276420593261719
-3.312222632733777 -22.931181520235171 13.819892883300781
20.108495083483273 16.461609274137388 5.570304870605469
6.491613712938829 25.746409803617368 42.807281494140625
24.728646603258664 -1.827221483003718 -26.896741867065430
3.558244791658923 -22.903250306856265 58.354274749755859
-2.521526965466931 20.152772337186704 59.999996185302734
6.597375717791124 10.724687963712592 -60.000000000000000
-1.772011312810376 26.430814176786313 -23.630249023437500
2.405882445009754 26.525805860746274 -32.049667358398438
9.041597691210313 16.446104437101255 60.000000000000000
-6.600299510327773 -22.176676362764468 22.917894363403320
6.586931076677843 -22.325497239839663 -12.763351440429688
22.093230572374875 13.717042356717963 39.125503540039062
-24.115708026257938 6.831731230008978 -3.699844360351562
-19.518299731580203 8.968901544797797 60.000003814697266
14.744857159288927 21.837703138578306 24.267395019531250
2.579642620714710 -7.110127061617000 60.000000000000000
9.445642796190782 -21.347643464815249 -10.574762344360352
10.423785534533067 24.290095716703306 -11.329141616821289
23.177155819567258 -7.576626390230278 -44.340549468994141
7.970315304430527 25.444613844144712 -6.211223602294922
-4.417621764508679 -22.861633867036929 -11.980663299560547
12.921435681017442 -19.712061494600405 -23.720109939575195
1.724233475359485 -23.248047441255679 -33.557907104492188
-13.526877078381972 22.382136732328306 13.494447708129883
17.348548260363156 -16.281010240327944 16.631706237792969
1.375128236444995 -19.999922364961733 60.000003814697266
10.865146008165880 -20.679678529512515 -18.916313171386719
10.358616200121446 -20.918030351411929 27.986587524414062
23.015485134752804 10.173301130521674 -60.000000000000000
-16.357985171643687 -16.925943940889468 30.295381546020508
16.895943966539914 -16.655438035738101 -48.725982666015625
23.801175442369992 9.403264909971137 -16.253273010253906
-2.224746856061413 -18.400404542696108 60.000000000000000
-22.775683078137821 -8.037113755952936 -34.307285308837891
23.395936337145383 -7.024049371492487 -5.094560623168945
8.157049027117296 24.055983930814634 -59.999996185302734
2.025908556612537 19.297591596830259 59.999996185302734
17.807223644884640 -15.901562303316227 28.542030334472656
-19.228426608411258 -4.575589269411188 60.000000000000000
7.255150643023057 -5.116719335329157 60.000000000000000
9.557282772692247 24.697844892728696 47.810886383056641
-23.102560672131961 -7.374942392122369 -9.338184356689453
24.292912808092648 -4.758549302827936 20.308988571166992
-0.881925496427014 -23.084082216035952 -23.058097839355469
15.600641575487662 21.129737287748227 -4.421287536621094
24.811299648912961 -1.172939866792781 -41.206314086914062
-20.714514407483524 15.189098745572943 -15.489363670349121
24.418620434435422 7.684060484159368 -50.488899230957031
18.474656429918820 -15.307665437471488 24.193878173828125
-1.678438577023938 -8.768494218599420 60.000000000000000
-24.628458651868289 0.228842407453434 27.208913803100586
-8.966411265698866 1.418742567289250 -60.000000000000000
-24.628458651868289 3.535580664861577 22.581703186035156
-4.437519225446181 26.263114362943540 -10.066070556640625
-10.197563800183730 -21.007855027925601 -0.774692535400391
15.153872814806505 21.499335676420102 -26.191993713378906
5.033895340593858 24.697249799955259 60.000000000000000
-5.786351832715468 25.843875318754087 -43.312297821044922
19.503505077990109 7.212990671384710 59.999996185302734
18.000253048571164 19.144605070341001 -25.182029724121094
8.721943226488634 -21.688189119112124 53.724609375000000
17.026736584337765 -16.547236055147280 35.056503295898438
-5.258175525037245 26.015489011991392 -14.810249328613281
-24.628458651868289 3.440895944822209 34.679107666015625
-22.893574389783328 10.725764662015814 -60.000000000000000
8.350449886950059 20.296233564603696 -59.999996185302734
-12.623177203504042 22.955640226591001 -45.010040283203125
-24.628458651868289 4.499952465284247 47.836296081542969
-11.666571292249159 23.562720686185727 30.580520629882812
21.348557797106320 3.054866701352970 60.000000000000000
-16.847750338880008 -16.404398530733218 26.474576950073242
14.020863857897325 4.727649122465033 59.999996185302734
4.631087151201768 -22.698593705904116 -16.265724182128906
-12.112078341809706 0.821766287076847 60.000000000000000
17.228581753405148 13.614068418729682 -60.000003814697266
22.235070553453976 13.358792692411322 1.464555740356445
-16.514441165296024 -16.759333223116030 -10.791931152343750
24.423632946642453 7.644393354642767 29.526269912719727
-22.913559588757938 -7.786317437898735 -40.318290710449219
-22.545929583875125 -8.455033868562799 34.036857604980469
19.995820370348508 16.616694837797052 0.007766723632812
-21.437918338147586 -10.470499604951959 -29.830703735351562
11.956344929369493 23.568931013334165 3.268516540527344
-2.883999022809460 -13.786114305269342 -60.000000000000000
2.001630869539783 -5.334374994051081 -59.999996185302734
13.413175907763048 12.900170713651557 60.000000000000000
6.271581974657579 -22.385651201021304 3.481529235839844
-6.010940703717665 -8.774450868379693 -59.999996185302734
-22.381687793103641 -8.753787606966119 28.788869857788086
11.532129612597032 17.523126035917176 -60.000000000000000
-5.937209758130507 25.794858366239438 2.332749366760254
-18.561327609387821 -14.579622834932428 -49.609394073486328
-22.346285495130008 12.103336721647162 60.000000000000000
-23.529959353772586 -5.710337728273493 -56.203704833984375
-6.804370555249648 -18.681870073091616 60.000000000000000
-21.351492556897586 14.030438810575385 -11.324212074279785
7.790584412249131 7.104120165098089 -60.000000000000000
24.254197445543820 -4.856333822023493 -39.728958129882812
